ncols 375
nrows 32
xllcorner 1405510
yllcorner 4914900
cellsize 10
NODATA_value -9999
36.0518 34.95383 33.82404 33.0673 32.46197 31.93032 30.75499 29.58704 28.21754 26.55982 25.93096 25.62538 25.39466 24.85181 21.56504 18.20428 14.60572 10.12855 10.35908 8.82185 3.401839 2.667455 2.305487 2.160171 2.129407 2.057719 2.088244 2.002724 1.950883 1.900599 1.913335 1.802789 1.837574 1.81381 1.786765 1.800816 2.333241 2.99051 3.403815 3.113703 3.145226 3.08939 2.75 2.51446 2.459 2.074697 1.506141 1.319629 1.20752 1.29109 1.337785 1.258728 1.361586 1.310979 1.042338 1.464984 1.931465 7.664693 3.167024 1.729264 1.811414 1.589985 1.519979 1.88011 1.94711 2.041646 2.032581 1.985845 1.808183 1.816153 1.830934 1.86619 1.717901 1.616096 1.550153 1.383956 2.091817 2.527021 2.563465 2.589557 2.472859 2.335655 2.543814 2.659795 2.558323 2.694935 2.89735 2.556142 2.361178 2.919133 2.79455 2.564552 2.346781 2.642814 2.536386 2.726434 2.62429 2.652309 2.866448 2.878752 5.340125 3.106126 2.703963 2.865644 2.68789 2.859746 2.850746 2.719755 2.446203 2.567091 2.380408 2.736034 2.595384 2.31294 2.321537 2.311217 2.183659 2.177002 2.225785 2.10756 2.287804 2.112812 2.064098 1.789351 2.15957 2.123125 2.471279 1.102682 -0.4 -0.4 -0.4 -0.4 -0.4 -0.4 -0.4 -0.4 -0.4 -0.4 -0.4 -0.4 -0.4 -0.4 -0.4 -0.4 -0.4 -0.4 -0.4 -0.4 -0.4 -0.4 -0.4 -0.4 -0.4 -0.4 -0.4 -0.4 -0.4 -0.4 -0.4 -0.4 -0.4 -0.4 -0.4 -0.4 -0.4 -0.4 -0.4 -0.4 -0.4 -0.4 -0.4 -0.4 -0.4 -0.4 -0.4 -0.4 -0.4 -0.4 -0.4 -0.4 -0.4 -0.4 -0.4 -0.4 -0.4 -0.4 -0.4 -0.4 -0.4 -0.4 -0.4 -0.4 -0.4 -0.4 -0.4 -0.4 -0.4 -0.4 -0.4 -0.4 -0.4 -0.4 -0.4 -0.4 -0.4 -0.4 -0.4 -0.4 -0.4 -0.4 -0.4 -0.4 -0.4 -0.4 -0.4 -0.4 -0.4 -0.4 -0.4 -0.4 1.968765 16.36629 20.42648 24.41414 27.76878 32.64189 37.18884 44.09492 45.84601 48.89897 50.44682 52.11388 53.58218 54.46732 55.62414 56.31236 57.36665 57.31073 57.64946 57.93976 57.76512 57.8103 57.82162 56.75596 56.09723 54.82777 53.1079 49.76308 47.89853 43.16348 37.3691 32.1076 28.19937 23.80139 20.18031 22.95268 25.2531 29.89309 34.12712 36.76812 38.26669 42.23859 44.55134 46.41483 48.75686 49.98445 51.26636 54.19725 53.86018 53.72891 54.05193 54.43184 54.70694 55.23454 55.86981 56.98489 58.18684 59.47111 60.9924 62.25212 62.95773 63.46702 63.85746 64.14774 63.88309 62.85324 59.47137 57.91162 56.13161 50.92985 49.04412 46.47783 42.81672 40.17486 37.53928 36.3255 34.93968 33.78852 30.83857 25.57756 20.64464 19.92852 16.7182 15.20349 15.36864 15.76856 16.10109 17.17453 20.30234 22.92323 24.03458 24.18117 26.70968 29.02536 32.46362 35.12742 37.71288 39.48439 42.19347 43.44399 46.94883 47.64302 48.58708 51.72028 53.20518 55.23795 57.2165 59.06192 59.0783 61.96723 63.31136 65.38511 67.05706 68.7253 70.37261 71.82555 73.24484 74.88007 77.35855 78.70262 81.31268 82.79583 85.20645 86.41062 88.21128 90.22488 91.77016 93.40311 94.7714 95.03927 97.55019 98.60999 100.1859 101.9092 102.832 104.0782 105.0099 105.6776 106.3118 107.2754 107.7004 107.552 107.931 107.74 108.5147 108.7558 109.3274 109.5641 108.2606 107.0802 106.914 106.7765 106.888 106.9202 105.0848
36.98377 35.42929 34.23694 33.57682 33.18964 32.6054 31.58697 30.38196 29.21542 27.84194 26.52625 26.04724 25.56429 25.09557 21.67068 19.03702 13.31822 10.93877 10.99477 6.595178 2.387897 2.612675 2.286935 2.128193 2.064943 2.028991 1.971551 2.063299 1.967748 1.931502 1.908038 1.813476 1.813417 1.735021 1.877416 2.815834 3.468072 3.632029 3.406852 3.240863 2.925747 2.786778 2.689184 2.25271 1.691901 1.251647 1.291106 1.211733 1.406873 1.435922 1.433688 1.376589 1.4071 1.364264 1.090733 1.443316 4.005014 7.979075 6.317772 1.773162 1.772473 1.685497 1.441639 1.623855 1.645557 1.865521 2.075527 1.70697 1.738886 1.695809 1.909696 1.654655 1.618703 1.648692 1.542897 1.632804 1.470778 2.376894 2.291117 1.777575 2.554801 2.412639 2.394003 2.560911 2.650655 2.615803 2.815464 2.822988 3.020827 2.964145 2.877855 2.796033 2.699805 2.520277 2.698416 2.466256 2.743006 2.89836 2.952767 2.897874 2.72 2.795926 2.800621 2.607215 2.740629 2.786814 2.79432 2.760604 2.589355 2.423307 2.308356 2.449301 2.569478 2.38919 2.310892 2.324661 2.30178 2.243111 2.305212 2.202066 2.17483 2.06942 2.18108 2.134301 1.90675 2.379364 2.147599 2.542108 0.6183908 -0.4 -0.4 -0.4 -0.4 -0.4 -0.4 -0.4 -0.4 -0.4 -0.4 -0.4 -0.4 -0.4 -0.4 -0.4 -0.4 -0.4 -0.4 -0.4 -0.4 -0.4 -0.4 -0.4 -0.4 -0.4 -0.4 -0.4 -0.4 -0.4 -0.4 -0.4 -0.4 -0.4 -0.4 -0.4 -0.4 -0.4 -0.4 -0.4 -0.4 -0.4 -0.4 -0.4 -0.4 -0.4 -0.4 -0.4 -0.4 -0.4 -0.4 -0.4 -0.4 -0.4 -0.4 -0.4 -0.4 -0.4 -0.4 -0.4 -0.4 -0.4 -0.4 -0.4 -0.4 -0.4 -0.4 -0.4 -0.4 -0.4 -0.4 -0.4 -0.4 -0.4 -0.4 -0.4 -0.4 -0.4 -0.4 -0.4 -0.4 -0.4 -0.4 -0.4 -0.4 -0.4 -0.4 -0.4 -0.4 -0.4 -0.4 1.877273 2.064358 18.15277 23.70928 29.21326 33.72365 36.87545 39.48192 43.19598 46.03112 48.68596 49.73148 51.91119 53.13437 54.3896 55.56968 56.26411 57.03294 57.5582 58.1666 57.86338 57.82153 58.03051 57.00397 56.20438 54.76256 52.75134 50.89061 48.88914 46.25421 41.23407 35.75739 31.36617 27.81937 22.66532 20.31523 21.62598 26.63725 29.14513 33.72173 36.89524 40.06163 42.59332 45.05585 47.06282 48.72798 49.86901 50.91126 51.92824 53.79745 53.44917 53.37003 53.90095 54.23833 54.94994 56.00888 57.25835 58.68443 59.93123 60.95571 61.99089 62.40019 63.2475 63.29561 63.33796 62.55476 60.94653 57.71542 57.13307 54.28725 49.86398 46.19341 40.87161 38.06636 35.03368 32.13171 30.63195 29.79093 29.09059 26.59555 21.12591 15.96833 14.97007 14.36006 14.12727 14.52868 15.18826 15.57653 19.6614 22.36041 24.83613 26.52194 27.22046 27.49164 29.17497 31.82394 34.78246 37.77687 40.13204 42.62642 44.69513 46.67468 47.68205 50.22576 52.67416 53.67705 55.86617 57.78546 59.64964 61.40312 62.77726 65.18149 66.42213 68.16006 69.84271 72.29026 73.02947 75.27073 77.17988 78.5332 80.65861 82.63968 84.95246 85.95967 88.97634 90.98907 92.05658 93.85681 94.83293 95.15726 97.44524 98.46889 99.22438 100.1765 102.6894 103.2993 104.8161 105.4195 105.9428 107.6701 107.8976 108.7303 109.4646 109.4312 109.0317 109.7839 109.8145 109.7301 109.7083 109.7112 109.2804 108.8936 108.6839 107.094 107.3891 105.6277
37.18139 35.70372 35.07764 33.98663 33.31438 33.00377 32.11134 31.09234 29.75569 28.43114 27.47542 26.38181 25.68283 25.11476 21.08144 17.25112 11.45397 11.48899 9.292424 3.588752 2.399075 2.50123 2.308154 2.086675 2.067893 1.99579 2.00717 1.967119 1.986195 1.966944 1.884266 1.825294 1.78264 2.092144 3.161034 3.940063 3.871129 3.506808 3.384142 2.978195 2.731413 2.529167 2.01245 1.408744 1.387359 1.138343 1.441944 1.632741 1.548723 1.51 1.473094 1.401531 1.467409 1.674374 1.158917 1.471354 5.011883 7.969563 4.129451 1.834978 1.449723 1.745706 1.592439 1.12608 1.679798 1.475141 1.350546 1.595243 1.529516 1.797076 1.720392 1.550461 1.556628 1.624938 1.673587 1.643991 1.593092 1.417159 1.865211 1.817626 1.774783 2.604357 2.407352 2.314783 2.574952 2.473406 2.49886 2.772464 2.836034 2.90145 2.819519 2.737696 2.655873 2.667569 2.528184 2.701809 2.560482 2.907037 2.937712 2.800238 2.795876 2.89533 2.581771 2.616474 2.622586 2.756572 2.729966 2.70336 2.638774 2.38948 2.156076 2.154925 2.313126 2.483142 2.389519 2.36 2.243849 2.221613 2.232073 2.102187 2.068171 2.235126 2.186877 2.256584 2.221688 1.981309 2.444927 2.095655 2.683277 0.3057238 -0.4 -0.4 -0.4 -0.4 -0.4 -0.4 -0.4 -0.4 -0.4 -0.4 -0.4 -0.4 -0.4 -0.4 -0.4 -0.4 -0.4 -0.4 -0.4 -0.4 -0.4 -0.4 -0.4 -0.4 -0.4 -0.4 -0.4 -0.4 -0.4 -0.4 -0.4 -0.4 -0.4 -0.4 -0.4 -0.4 -0.4 -0.4 -0.4 -0.4 -0.4 -0.4 -0.4 -0.4 -0.4 -0.4 -0.4 -0.4 -0.4 -0.4 -0.4 -0.4 -0.4 -0.4 -0.4 -0.4 -0.4 -0.4 -0.4 -0.4 -0.4 -0.4 -0.4 -0.4 -0.4 -0.4 -0.4 -0.4 -0.4 -0.4 -0.4 -0.4 -0.4 -0.4 -0.4 -0.4 -0.4 -0.4 -0.4 -0.4 -0.4 -0.4 -0.4 -0.4 -0.4 -0.4 -0.4 -0.4 -0.4 2.047484 4.403876 21.4436 26.90356 33.24227 36.92775 40.11177 41.90978 45.54488 48.04399 49.06092 50.35109 51.47423 53.19862 54.16495 55.23182 56.1544 57.30824 57.63686 58.04834 57.84969 58.077 57.28801 56.87321 55.51344 54.80128 51.37011 48.76388 45.49504 41.78305 37.93179 33.96155 30.37721 25.20545 20.44385 19.55858 20.12722 26.73924 29.59697 33.07193 35.49679 39.07658 41.7696 44.98753 47.15423 48.31532 49.47816 49.88274 50.49778 51.74823 53.31805 53.36565 53.28709 53.90257 54.74895 55.77971 57.0712 58.61775 59.01108 60.36577 61.27812 61.78744 62.0591 62.12262 61.79559 60.49813 57.52255 57.6123 56.49038 53.65659 49.42568 45.08487 39.62541 34.7169 30.83607 27.55381 24.73919 24.12591 23.79806 20.65634 17.13328 12.12773 11.34551 12.1462 12.73423 14.20763 14.53916 16.74213 20.54419 23.89258 26.51212 28.18111 29.70735 30.02147 30.37219 31.03462 34.38717 37.21022 39.83627 42.30396 44.82608 46.88104 48.74007 50.54641 52.74784 54.8381 55.76631 57.96626 60.66324 62.2748 64.5974 66.3295 67.95338 69.51914 71.79201 72.2634 73.7041 76.95126 78.55923 80.26871 83.01884 85.6075 85.69 87.81205 90.42693 92.29022 93.45271 96.44973 97.2249 98.26517 98.55979 99.27129 100.0196 100.8998 102.2657 104.1813 105.3041 105.8875 107.7973 108.8172 108.9152 109.4915 110.1443 110.9146 110.515 110.9093 111.9628 111.4387 111.8547 111.7673 110.8351 110.5843 109.2815 108.5566 107.594 107.558
37.67162 36.11489 35.16956 34.25211 34.09763 33.34024 32.69201 31.80726 30.46544 29.20343 27.87726 26.92322 25.62767 24.0438 20.28751 14.94427 12.16074 12.00809 6.638638 2.554336 2.43984 2.32559 2.082145 2.053425 1.998485 1.934978 1.921202 1.902827 1.890258 1.848879 1.836332 1.757968 2.549574 3.675585 4.363051 4.163826 3.778532 3.504348 3.059897 2.966231 2.453981 1.720152 1.350268 1.305295 1.274494 1.424608 1.500632 1.611813 1.641017 1.625921 1.553371 1.519479 1.57408 1.530619 1.263876 1.467515 6.529624 7.848071 1.998853 1.809017 1.619181 1.552655 1.756147 1.50785 1.177317 1.360448 1.432946 1.33937 1.711555 1.603105 1.808699 1.800892 1.700205 1.60456 1.628864 1.74 1.6315 1.185915 1.56484 1.841543 1.815475 1.806163 2.282891 2.4 2.298651 2.53265 2.652299 2.68265 2.664015 2.77726 2.761182 2.679359 2.604286 2.727712 2.822222 2.567958 2.767864 2.678341 2.829526 2.924062 2.877137 2.648317 2.779179 2.745533 2.839613 2.667735 2.638579 2.627634 2.616689 2.592004 2.233442 2.287486 2.483149 2.364687 2.344936 2.426777 2.280985 2.372841 2.330688 2.20287 2.303693 2.292864 2.382178 2.25872 2.364432 2.222786 2.023293 2.363383 2.102554 2.779308 -0.4 -0.4 -0.4 -0.4 -0.4 -0.4 -0.4 -0.4 -0.4 -0.4 -0.4 -0.4 -0.4 -0.4 -0.4 -0.4 -0.4 -0.4 -0.4 -0.4 -0.4 -0.4 -0.4 -0.4 -0.4 -0.4 -0.4 -0.4 -0.4 -0.4 -0.4 -0.4 -0.4 -0.4 -0.4 -0.4 -0.4 -0.4 -0.4 -0.4 -0.4 -0.4 -0.4 -0.4 -0.4 -0.4 -0.4 -0.4 -0.4 -0.4 -0.4 -0.4 -0.4 -0.4 -0.4 -0.4 -0.4 -0.4 -0.4 -0.4 -0.4 -0.4 -0.4 -0.4 -0.4 -0.4 -0.4 -0.4 -0.4 -0.4 -0.4 -0.4 -0.4 -0.4 -0.4 -0.4 -0.4 -0.4 -0.4 -0.4 -0.4 -0.4 -0.4 -0.4 -0.4 -0.4 -0.4 -0.4 2.16994 1.922257 19.48399 23.93934 31.47235 36.07114 39.23065 42.68099 46.67371 48.60864 50.05694 50.63502 51.42542 52.2438 53.3564 53.90195 55.29805 56.25109 56.80479 57.61745 57.69652 57.99862 57.52413 56.98907 56.21665 54.99282 53.14877 50.05782 45.94205 42.41044 38.47725 34.38215 31.49043 27.3818 23.29883 19.52092 18.34278 18.74872 25.76962 28.09625 31.65493 34.52953 36.73835 41.54768 44.38568 46.24615 46.75597 46.63393 47.83918 48.776 49.97671 51.84192 52.91953 53.46393 53.55179 53.58577 54.74405 55.86319 56.98676 58.26905 59.35916 60.13553 60.7975 60.926 60.86891 60.49477 57.33037 57.47315 57.42707 55.89718 53.29601 48.78015 44.50564 40.47515 35.89434 31.28653 26.95643 23.10155 19.33729 17.79751 14.67095 11.63022 10.43751 11.39 12.45759 13.6433 13.98018 15.74282 18.77743 21.84257 25.11187 27.88615 29.87498 31.77682 32.3346 32.68727 33.60293 34.37563 36.75912 39.48273 41.94066 44.64486 47.14537 48.85196 50.93857 52.85114 55.44003 55.58928 58.79566 61.38576 63.25162 65.58568 67.2612 68.91085 70.95495 72.29937 72.45992 76.74179 78.2157 80.26398 83.17429 85.06686 85.44016 85.31378 88.34203 91.62268 93.98177 95.53262 97.42354 97.58229 100.0676 100.8347 101.1485 101.6544 102.3782 103.6595 104.4475 105.144 106.0341 108.3202 108.4644 109.7093 110.6252 110.7611 111.3456 111.6916 112.2785 112.6075 112.8033 113.3032 113.5718 113.2979 112.6143 111.4964 110.5664 107.5345 108.1921
38.09426 37.10957 35.76987 34.90152 34.38565 33.90034 33.07557 32.17552 30.95587 29.54247 28.45549 26.89583 24.97228 22.55775 18.16735 12.62278 12.62289 10.16347 5.272196 2.399319 2.375807 2.323019 2.032732 2.035782 1.985178 1.97 1.92104 1.909672 1.905388 1.838997 1.778504 2.888201 4.15345 4.666316 4.347022 3.884305 3.52188 3.250848 3.002181 1.965948 1.477062 1.42107 1.187534 1.219738 1.309307 1.289999 1.372223 1.425189 1.531734 1.834599 1.723949 1.632443 1.547456 1.363298 1.349886 1.66208 7.893843 6.078187 1.830672 1.649678 1.49199 1.408012 1.658245 1.600194 1.430755 1.398812 1.486429 1.700694 1.786215 1.485308 1.686811 1.7803 1.595893 1.773862 1.824306 1.794842 1.53946 1.396969 1.204937 1.821154 1.854264 1.913299 1.999695 2.54324 2.440798 2.473651 2.416745 2.556172 2.605518 2.605353 2.700044 2.621023 2.659167 2.753056 2.839256 2.81535 2.785956 2.887386 2.872564 2.86114 2.734879 2.725627 2.656931 2.740833 2.723498 2.627439 2.616494 2.605549 2.594604 2.552614 2.388319 2.494443 2.509413 2.470795 2.467402 2.243599 2.424678 2.318478 2.422421 2.411243 2.424201 2.38662 2.335534 2.345541 2.230774 2.296354 2.218268 2.10317 2.346625 2.358358 2.667984 -0.4 -0.4 -0.4 -0.4 -0.4 -0.4 -0.4 -0.4 -0.4 -0.4 -0.4 -0.4 -0.4 -0.4 -0.4 -0.4 -0.4 -0.4 -0.4 -0.4 -0.4 -0.4 -0.4 -0.4 -0.4 -0.4 -0.4 -0.4 -0.4 -0.4 -0.4 -0.4 -0.4 -0.4 -0.4 -0.4 -0.4 -0.4 -0.4 -0.4 -0.4 -0.4 -0.4 -0.4 -0.4 -0.4 -0.4 -0.4 -0.4 -0.4 -0.4 -0.4 -0.4 -0.4 -0.4 -0.4 -0.4 -0.4 -0.4 -0.4 -0.4 -0.4 -0.4 -0.4 -0.4 -0.4 -0.4 -0.4 -0.4 -0.4 -0.4 -0.4 -0.4 -0.4 -0.4 -0.4 -0.4 -0.4 -0.4 -0.4 -0.4 -0.4 -0.4 -0.4 -0.4 -0.4 -0.4 2.305935 3.302287 21.43824 26.62239 34.17081 37.94142 41.27245 45.53824 48.73573 49.92663 50.74913 51.68628 52.1894 53.12113 53.60398 54.33077 55.11579 56.03103 56.78887 57.27561 57.81235 57.50877 57.23456 56.71414 55.52834 54.00131 51.06704 48.37749 44.83455 40.58128 35.49637 31.68372 28.28295 24.82605 21.3883 17.22343 16.87926 17.34186 24.02715 27.08127 30.42821 33.6995 35.19723 40.29071 42.60719 43.43041 43.58548 44.51609 46.81416 48.07335 50.68255 51.60303 52.75495 53.22276 53.44086 53.52637 53.59449 54.18982 55.34741 56.74182 57.85794 58.93565 59.29168 59.34562 59.35054 57.06213 57.09364 57.1611 56.64652 54.56823 51.67153 47.9104 44.30121 40.36662 36.15802 31.6936 26.8378 22.59212 18.12485 13.96694 10.2538 10.01957 10.78148 11.65866 12.96218 13.51157 14.61135 16.98098 20.41027 24.02585 27.48663 29.2683 31.76993 33.46316 34.45617 35.0311 35.45936 35.77837 36.77982 39.37915 41.73112 44.38363 46.87807 49.25872 51.29021 53.0145 55.49819 58.62919 59.89487 61.31314 64.00749 66.02682 68.50137 70.34526 72.12328 72.33438 76.68732 77.7717 80.40907 81.48203 83.87915 85.60353 85.60032 85.44141 90.51655 93.00803 94.95064 96.52989 97.56071 99.60892 101.0313 101.3838 102.4571 103.2502 103.9018 104.3199 105.0018 105.9953 107.8485 108.3513 108.4596 109.4883 110.3528 110.9405 111.4612 111.7609 111.9485 112.5377 113.1998 113.449 113.6931 113.8609 113.513 113.1532 110.542 107.7031 108.3151
38.45935 37.41134 36.85504 35.64135 34.78761 34.40128 33.60006 32.18303 31.03415 29.62233 28.18668 26.36324 23.61452 20.49492 14.9756 13.35388 12.98637 9.027155 5.58041 2.11695 2.368513 2.08486 2.034854 2.04 2.020164 2.01672 1.91625 1.912422 1.828024 1.740682 3.005478 4.382537 5.014468 4.637417 4.185369 3.685315 3.257758 2.799128 1.790883 1.461838 1.344618 1.270116 1.314285 1.422352 1.490061 1.475673 1.464057 1.400685 1.444036 1.662838 1.492778 1.395234 1.557223 1.224251 1.422912 4.191775 7.878598 1.68229 1.68065 1.597449 1.517121 1.402614 1.349483 1.644045 1.514943 1.291123 1.569585 1.706712 1.777336 1.779863 1.824504 1.676046 1.746728 1.878529 1.89051 1.784109 1.783034 1.610421 1.292882 1.068494 1.844799 1.90661 1.921593 2.660775 2.564506 2.481274 2.490736 2.750334 2.564302 2.544516 2.546475 2.590622 2.684511 2.7784 2.706743 2.794877 2.852645 2.944284 2.837978 2.586287 2.812406 2.674479 2.685994 2.699577 2.791592 2.627398 2.595808 2.591232 2.572518 2.541397 2.586595 2.576217 2.489215 2.426723 2.355214 2.254898 2.191624 2.406235 2.431649 2.493734 2.444547 2.48808 2.519414 2.383154 2.358611 2.231966 2.275665 2.429533 2.188452 2.341471 2.524162 1.824752 -0.4 -0.4 -0.4 -0.4 -0.4 -0.4 -0.4 -0.4 -0.4 -0.4 -0.4 -0.4 -0.4 -0.4 -0.4 -0.4 -0.4 -0.4 -0.4 -0.4 -0.4 -0.4 -0.4 -0.4 -0.4 -0.4 -0.4 -0.4 -0.4 -0.4 -0.4 -0.4 -0.4 -0.4 -0.4 -0.4 -0.4 -0.4 -0.4 -0.4 -0.4 -0.4 -0.4 -0.4 -0.4 -0.4 -0.4 -0.4 -0.4 -0.4 -0.4 -0.4 -0.4 -0.4 -0.4 -0.4 -0.4 -0.4 -0.4 -0.4 -0.4 -0.4 -0.4 -0.4 -0.4 -0.4 -0.4 -0.4 -0.4 -0.4 -0.4 -0.4 -0.4 -0.4 -0.4 -0.4 -0.4 -0.4 -0.4 -0.4 -0.4 -0.4 -0.4 -0.4 -0.4 1.615418 2.242876 8.99091 22.55979 30.54285 36.18273 38.15596 41.86385 47.59125 49.66582 50.84275 51.79584 52.73821 52.98272 53.31231 53.99826 54.84715 55.46222 56.10188 56.68151 57.23117 56.83981 57.12534 56.62221 55.7323 54.70754 51.8815 49.33064 46.22249 43.19341 39.64869 34.84684 31.45253 27.08096 23.31699 18.89552 16.07359 14.91743 16.0746 21.57391 25.38738 28.63092 32.35507 34.98048 38.19841 39.90325 41.31929 42.92249 44.18147 45.53166 47.63704 49.88997 51.10215 51.96791 52.36255 52.42385 52.71896 53.68179 53.70347 53.8657 54.43164 55.85095 57.36425 57.87632 57.77996 56.49027 56.66899 55.85085 54.64943 54.2125 52.28681 49.62936 45.95406 42.47686 38.7523 34.98989 29.50885 24.52884 19.54723 14.75243 10.60778 9.365614 10.54436 10.98335 11.79454 12.97344 13.3415 15.81015 18.20859 22.59475 25.9778 29.3866 31.24203 33.87882 35.35595 36.45881 37.24505 37.45051 37.75439 38.57333 39.70087 41.83313 43.96735 46.41308 48.69444 51.19638 53.50915 55.33036 57.97825 60.00825 61.62888 64.00839 66.8849 68.7748 70.42045 71.69168 75.11091 77.33247 78.98241 80.76431 81.78198 84.81789 85.74789 85.62007 89.48956 92.35515 92.5977 95.687 97.21499 98.92931 101.0153 101.3973 101.5859 103.1358 104.0821 104.5737 104.9947 105.7417 106.5173 107.9765 108.1538 108.9639 109.3537 110.0849 110.7186 110.9129 111.4408 111.7788 111.7827 112.3254 112.8159 113.0021 113.4084 113.2759 112.9162 112.5133 107.8246 108.4128
39.62238 38.50912 37.37927 36.03686 35.12253 34.43527 33.78064 32.23651 30.79425 29.403 27.63427 24.47722 21.52831 18.54091 13.86146 13.67627 11.29267 8.112672 4.428937 2.292012 2.21822 1.981352 2.016975 2.072028 2.047028 1.87505 1.831897 1.740327 1.810222 3.065222 4.519623 5.29988 4.928484 4.4547 3.819937 3.348867 2.436499 1.654634 1.425499 1.198509 1.338135 1.36886 1.428236 1.528542 1.56871 1.642161 1.630545 1.638321 1.585086 1.670726 1.649601 1.679578 1.478459 1.237748 1.394957 6.003327 7.745144 2.096277 1.665127 1.665132 1.464759 1.286165 1.341395 1.466201 1.598078 1.275512 1.429391 1.664224 1.692754 2.017094 1.794855 1.910966 1.847491 1.886942 1.992088 1.909102 1.775338 1.634272 1.416729 1.330522 1.123677 1.828548 1.868455 1.918619 2.300654 2.478405 2.432035 2.497325 2.482188 2.52297 2.437529 2.492027 2.563113 2.626185 2.595062 2.560252 2.857208 2.753216 2.781945 2.648107 2.940124 2.786875 2.776073 2.768635 2.697098 2.649011 2.576694 2.554348 2.638236 2.548342 2.54698 2.533234 2.490709 2.446376 2.428413 2.285066 2.376342 2.415884 2.438244 2.536146 2.480432 2.398836 2.5125 2.4286 2.357939 2.285136 2.219447 2.129286 2.010294 2.29528 2.36101 2.609881 1.129195 -0.4 -0.4 -0.4 -0.4 -0.4 -0.4 -0.4 -0.4 -0.4 -0.4 -0.4 -0.4 -0.4 -0.4 -0.4 -0.4 -0.4 -0.4 -0.4 -0.4 -0.4 -0.4 -0.4 -0.4 -0.4 -0.4 -0.4 -0.4 -0.4 -0.4 -0.4 -0.4 -0.4 -0.4 -0.4 -0.4 -0.4 -0.4 -0.4 -0.4 -0.4 -0.4 -0.4 -0.4 -0.4 -0.4 -0.4 -0.4 -0.4 -0.4 -0.4 -0.4 -0.4 -0.4 -0.4 -0.4 -0.4 -0.4 -0.4 -0.4 -0.4 -0.4 -0.4 -0.4 -0.4 -0.4 -0.4 -0.4 -0.4 -0.4 -0.4 -0.4 -0.4 -0.4 -0.4 -0.4 -0.4 -0.4 -0.4 -0.4 -0.4 -0.4 -0.4 -0.4 2.43076 2.408533 8.512691 21.70003 30.91182 36.14349 40.08249 41.80182 48.27922 49.88797 51.52703 52.67059 52.86834 52.80824 53.06201 54.41193 54.95397 55.55799 56.13755 56.56025 56.6832 56.34133 56.43324 55.63123 54.28101 52.05593 49.41164 46.59486 43.83294 40.88958 38.15417 34.37735 30.31684 26.55669 22.87175 18.44859 14.53794 13.14556 14.61768 18.86346 24.19359 26.91684 30.6364 32.07294 33.29024 34.71134 36.55643 39.44356 42.11008 44.57196 46.02193 47.54901 48.7155 50.1249 49.93988 50.53328 50.72216 51.46633 53.73676 53.81453 53.9254 54.04364 54.67545 55.93864 55.90542 55.72916 55.86051 54.59576 53.71972 51.56814 49.26205 45.98463 42.97888 39.25424 36.09074 31.42976 26.37071 21.5461 15.54717 11.05281 8.870084 9.741065 10.56826 11.68135 12.42462 12.62295 16.0192 17.6032 21.01297 24.31526 27.7923 30.7572 33.64104 35.73631 36.87502 38.18137 39.01759 40.28794 40.03963 40.65035 41.38649 42.94065 44.76146 46.987 48.71291 51.13748 53.61123 55.78671 59.28969 59.834 61.76332 64.08617 66.69521 69.833 71.22601 73.69084 75.99857 78.09813 80.02728 81.92462 83.31441 85.97268 85.65039 89.15193 90.88915 92.58219 95.56399 96.56082 98.08978 99.33811 102.3195 102.5798 103.225 104.7162 104.5742 105.1913 105.7016 106.39 106.5077 106.5957 108.1557 108.8902 109.4485 109.6764 110.1073 110.3524 110.8421 110.7151 111.1505 111.3321 110.9645 111.3425 111.729 111.5425 111.3166 111.0485 107.5573 108.4322
40.11045 38.78627 37.80204 36.97115 35.88398 34.71714 33.70213 32.85641 30.98592 29.14397 26.14943 22.71377 19.57415 15.32725 14.4434 14.08318 10.21707 7.219327 3.729091 2.417476 2.259231 1.978371 2.080566 2.041919 1.758855 1.692675 1.565579 1.752191 2.680556 4.40485 5.555369 5.168269 4.66152 4.064491 3.489911 2.464758 1.567682 1.3124 1.430237 1.335251 1.393758 1.383667 1.477741 1.606711 1.743419 1.820389 1.797034 1.864192 1.775461 1.843525 1.748263 1.598584 1.488125 1.412186 1.394739 7.538989 7.543618 1.818856 1.636202 1.43185 1.461832 1.330262 1.390513 1.453653 1.548486 1.567279 1.161081 1.512401 1.796673 1.814024 1.930783 1.95281 1.877968 1.778039 1.888996 2.049286 1.994682 1.824959 1.739278 1.469296 1.349801 1.076031 2.152915 2.212419 2.32257 2.37014 2.471052 2.598776 2.400882 2.341208 2.378749 2.431567 2.47207 2.374263 2.507967 2.669025 2.568064 2.706414 2.694261 2.759773 2.485735 2.653194 2.698449 2.751528 2.676564 2.629219 2.506431 2.579655 2.555716 2.474309 2.419812 2.445452 2.467485 2.349859 2.394053 2.332002 2.42983 2.677007 2.562672 2.555209 2.542361 2.452455 2.530239 2.453712 2.413319 2.275464 2.190416 2.028179 2.168774 2.056718 2.479169 2.336508 2.561617 0.8586935 -0.4 -0.4 -0.4 -0.4 -0.4 -0.4 -0.4 -0.4 -0.4 -0.4 -0.4 -0.4 -0.4 -0.4 -0.4 -0.4 -0.4 -0.4 -0.4 -0.4 -0.4 -0.4 -0.4 -0.4 -0.4 -0.4 -0.4 -0.4 -0.4 -0.4 -0.4 -0.4 -0.4 -0.4 -0.4 -0.4 -0.4 -0.4 -0.4 -0.4 -0.4 -0.4 -0.4 -0.4 -0.4 -0.4 -0.4 -0.4 -0.4 -0.4 -0.4 -0.4 -0.4 -0.4 -0.4 -0.4 -0.4 -0.4 -0.4 -0.4 -0.4 -0.4 -0.4 -0.4 -0.4 -0.4 -0.4 -0.4 -0.4 -0.4 -0.4 -0.4 -0.4 -0.4 -0.4 -0.4 -0.4 -0.4 -0.4 -0.4 -0.4 -0.4 -0.4 2.447923 2.732245 6.173213 21.83206 28.96204 37.12888 41.74932 42.53996 47.95731 50.46148 51.773 52.88688 53.42839 53.70505 54.28879 54.48925 55.00731 55.77507 56.00701 54.69376 55.90301 54.62069 52.27891 50.43695 51.00126 49.71513 46.98665 42.24889 39.83859 38.42063 35.5219 31.7749 28.20476 25.07126 20.14089 15.43955 12.21147 10.98092 13.14172 16.68442 21.99446 25.13492 28.91393 30.93248 30.53422 30.41307 32.38892 36.4585 40.13156 42.95715 43.8136 44.71818 45.02272 46.54362 48.34016 47.63825 48.10317 48.86773 50.65963 52.64141 53.92705 54.19756 54.20124 54.4289 54.62157 53.08699 52.84308 52.28008 50.69294 48.68892 45.70755 41.99888 39.08824 36.08021 31.92732 27.60409 23.22203 18.1678 12.72413 9.880074 8.529349 9.424409 10.65138 11.58435 11.95688 15.95689 18.03355 20.58497 22.56416 27.19723 29.71383 32.53186 35.44932 37.17154 38.65348 39.7072 41.5672 43.21812 43.0121 42.66273 43.71361 44.99677 46.23831 48.21022 50.01338 51.66414 54.18298 55.96197 58.33729 59.68736 62.00739 64.69534 66.60833 69.31025 71.65402 73.88748 76.03578 78.51828 80.75763 81.88667 84.06127 86.13801 85.80472 89.34723 91.72015 91.61531 95.72812 97.40742 99.07304 100.211 101.5212 102.5134 102.7506 103.8262 104.6613 105.2891 106.1226 106.4516 106.5154 106.7465 106.9405 108.8258 109.0095 109.354 109.7209 109.8702 110.2685 110.2769 110.3084 110.3489 110.0955 109.2993 110.1521 109.9982 109.3866 107.6321 107.5686 107.6448
40.60731 39.36417 38.49866 37.63878 36.40331 35.13325 33.79946 32.97318 31.21115 29.38767 25.02331 21.22219 18.29333 15.0922 14.80903 12.1082 9.298734 6.397361 2.611406 2.337555 2.13979 2.044803 1.933522 1.830082 1.531757 1.633402 1.619124 1.892546 3.785825 5.504842 5.491839 4.943503 4.394371 3.788003 2.708621 1.510828 1.33355 1.451533 1.401621 1.360213 1.394025 1.435748 1.486236 1.67722 1.819755 1.942602 1.711228 1.724532 1.756558 1.696463 1.575743 1.509704 1.462437 1.536115 3.253827 7.746987 6.741369 1.692603 1.540695 1.541993 1.286928 1.600909 1.527446 1.508206 1.315926 1.692215 1.513233 1.381294 1.737882 1.905849 1.940329 1.924917 1.894489 1.878957 1.881128 1.914329 1.823044 1.737052 1.596084 1.695204 1.55974 1.543488 2.100684 2.087168 2.078953 2.216773 2.394838 2.303481 2.400574 2.325928 2.201057 2.245353 2.123847 2.397165 2.454939 2.217444 2.773356 2.93445 2.860344 2.634485 2.611523 2.33246 2.620824 2.673903 2.726982 2.51683 2.602313 2.801728 2.811389 2.379308 2.439032 2.448311 2.426434 2.34 2.383702 2.576721 2.632654 2.791146 2.686507 2.659167 2.597682 2.512845 2.495691 2.42453 2.355088 2.255034 2.111258 2.082022 2.041425 2.191267 2.149404 2.514409 2.306713 2.711042 0.4404079 -0.4 -0.4 -0.4 -0.4 -0.4 -0.4 -0.4 -0.4 -0.4 -0.4 -0.4 -0.4 -0.4 -0.4 -0.4 -0.4 -0.4 -0.4 -0.4 -0.4 -0.4 -0.4 -0.4 -0.4 -0.4 -0.4 -0.4 -0.4 -0.4 -0.4 -0.4 -0.4 -0.4 -0.4 -0.4 -0.4 -0.4 -0.4 -0.4 -0.4 -0.4 -0.4 -0.4 -0.4 -0.4 -0.4 -0.4 -0.4 -0.4 -0.4 -0.4 -0.4 -0.4 -0.4 -0.4 -0.4 -0.4 -0.4 -0.4 -0.4 -0.4 -0.4 -0.4 -0.4 -0.4 -0.4 -0.4 -0.4 -0.4 -0.4 -0.4 -0.4 -0.4 -0.4 -0.4 -0.4 -0.4 -0.4 -0.4 -0.4 -0.4 -0.4 2.345032 2.830134 4.070356 21.11802 29.11301 37.91252 42.00249 45.51798 48.85881 50.08921 51.9819 53.10142 53.54071 53.8748 54.12863 54.42676 54.78793 55.16401 55.13927 55.2366 54.20104 49.78888 42.60966 39.86292 44.17313 45.9319 41.30066 36.44906 34.59809 34.23088 32.64058 29.68458 26.13425 22.28233 17.75162 13.5741 10.2504 8.794675 11.84515 15.15465 19.40365 23.13812 25.83722 27.97813 28.05294 28.97306 29.84772 33.5517 37.04463 38.66185 40.3115 41.42373 42.78861 43.77406 44.65752 45.45073 46.05537 48.15377 49.9465 51.42603 53.06986 54.09141 54.10237 54.29766 52.59589 51.2748 50.12448 49.00797 47.59672 45.32749 42.5757 38.83863 35.3258 32.28352 28.507 25.04303 20.07648 14.90549 10.7986 8.236649 8.088105 8.487733 10.28915 10.98703 15.2324 17.33025 20.04871 22.64548 25.23597 28.7716 31.82716 34.3145 36.72828 38.52048 39.72937 41.05607 41.92749 43.28898 43.32479 43.2701 45.52102 46.91723 47.4072 49.30428 50.42277 52.35058 54.44708 56.37862 58.39827 60.42436 62.53504 65.15238 66.74854 69.39473 71.96851 74.25797 76.42001 79.1894 80.96452 83.07173 84.8656 86.79227 86.40997 90.23681 92.21815 94.12884 96.05342 98.13499 98.99372 100.1634 101.0113 102.3817 104.1654 104.1921 105.1104 105.1317 105.8466 106.4337 106.5913 106.8734 106.7781 107.9634 108.4608 109.2293 109.1988 109.2612 109.4709 109.4636 109.6655 109.4011 109.4982 108.3854 107.6295 107.307 107.6027 106.5525 107.2006 105.2039
40.87594 40.00224 39.22487 37.83144 36.58029 35.2768 33.88752 32.73289 30.31897 27.02717 23.16574 18.96148 15.76852 15.63672 14.98834 10.45156 7.740386 3.305862 2.381204 2.237072 2.118223 1.907965 1.718173 1.753608 1.650799 1.743506 1.925054 3.414874 5.243663 5.930401 5.38743 4.787036 4.122643 3.335428 1.412201 1.390956 1.360127 1.516714 1.408326 1.385176 1.391146 1.486394 1.4846 1.610575 1.566939 1.702978 1.797225 1.794627 1.792029 1.671995 1.495926 1.424395 1.400455 1.510806 4.755751 7.786465 4.996813 1.615132 1.449514 1.517977 1.558273 1.536151 1.453922 1.404197 1.677063 1.543529 1.614658 1.305521 1.434484 1.774732 1.874493 1.897428 1.824411 1.877652 1.864446 1.855589 1.825323 1.839092 1.600165 1.485471 1.477827 1.620172 1.637387 1.998947 1.936245 2.144068 2.346033 2.379825 2.254823 2.246126 2.613403 1.762438 2.097603 2.096914 2.006891 2.464853 2.705348 2.775697 2.711877 2.63404 2.317666 2.491692 2.34875 2.600097 2.654176 2.767296 2.691288 2.777374 2.787479 2.682882 2.527306 2.384898 2.402906 2.538261 2.55 2.486431 2.608842 2.791245 2.708873 2.653496 2.590128 2.484183 2.486147 2.431865 2.374916 2.273431 2.146363 2.09037 2.094704 2.126756 2.180392 2.096011 2.498581 2.354228 2.800703 -0.4 -0.4 -0.4 -0.4 -0.4 -0.4 -0.4 -0.4 -0.4 -0.4 -0.4 -0.4 -0.4 -0.4 -0.4 -0.4 -0.4 -0.4 -0.4 -0.4 -0.4 -0.4 -0.4 -0.4 -0.4 -0.4 -0.4 -0.4 -0.4 -0.4 -0.4 -0.4 -0.4 -0.4 -0.4 -0.4 -0.4 -0.4 -0.4 -0.4 -0.4 -0.4 -0.4 -0.4 -0.4 -0.4 -0.4 -0.4 -0.4 -0.4 -0.4 -0.4 -0.4 -0.4 -0.4 -0.4 -0.4 -0.4 -0.4 -0.4 -0.4 -0.4 -0.4 -0.4 -0.4 -0.4 -0.4 -0.4 -0.4 -0.4 -0.4 -0.4 -0.4 -0.4 -0.4 -0.4 -0.4 -0.4 -0.4 -0.4 0.2591747 1.489007 2.135944 3.020931 3.073183 22.52242 30.36756 37.43077 42.36535 44.39243 46.50753 50.22981 51.89753 53.02166 53.56416 53.95678 53.45847 53.42564 53.84509 53.76854 52.27291 48.87027 46.6601 38.68689 34.40372 31.62378 33.81542 36.43858 35.57677 32.18187 30.01337 30.15129 28.81766 26.55871 23.28641 19.90067 15.15376 11.50265 8.233566 7.336992 10.45422 13.22022 17.16159 19.8556 22.88628 24.29342 22.06629 25.287 28.26834 31.21659 33.19215 34.48843 36.27622 37.96831 39.71754 41.57793 42.77195 42.99422 45.66537 46.94597 48.76384 50.13878 51.04745 51.28767 53.14761 51.89794 50.18195 48.64071 48.0283 45.80424 44.20057 42.58991 39.88594 36.42504 32.58587 29.16157 25.88303 22.13707 16.54655 12.12789 9.310357 7.973318 7.690412 9.31346 10.00552 11.79813 15.59063 18.76377 22.6346 25.21134 28.45189 31.12218 33.05788 34.9596 36.78691 39.02711 40.50282 41.8552 42.86183 43.8274 43.55631 45.90154 46.28602 47.19614 49.04854 49.47166 50.82462 53.03748 54.60994 57.07434 58.74257 60.75825 62.76703 65.17955 66.58912 69.75832 71.6032 73.97803 77.15515 78.75597 80.4782 82.77151 85.34792 87.58231 87.93736 90.37714 92.05545 94.51376 96.99156 97.95042 98.81572 99.46806 100.7326 101.9472 103.3751 102.6819 105.2912 104.7495 105.3301 105.9968 106.3709 106.9156 106.771 106.4915 107.5277 108.5059 108.6153 108.7009 108.7666 109.0131 109.0494 108.6891 108.2622 107.8839 106.9249 105.9555 105.678 106.1252 105.3182 103.4043
40.7224 39.51424 38.81213 37.31647 36.15274 35.25145 32.83803 30.19898 27.39462 25.07254 21.60138 18.29743 16.33561 15.9184 13.47545 9.715657 4.192155 2.522591 2.41143 2.175749 1.931795 1.737818 1.744578 1.799961 1.769986 1.979819 3.461565 4.920107 6.132291 5.798543 5.337936 4.648904 4.16262 1.594328 1.42909 1.430054 1.377638 1.335526 1.41503 1.410138 1.416108 1.445298 1.5289 1.638343 1.55956 1.618415 1.717248 1.807645 1.805047 1.643889 1.661516 1.365928 1.546816 1.393253 7.077646 7.573359 2.619799 1.490673 1.572638 1.552803 1.389061 1.533898 1.494385 1.51435 1.360876 1.448708 1.637109 1.600417 1.15113 1.553246 1.832631 1.807403 1.796445 1.872419 1.923364 1.848883 1.753375 1.68313 1.607173 1.694225 1.691705 1.669946 1.554115 1.511705 1.651801 1.932682 2.123773 2.173497 2.065296 2.010494 1.63423 1.996542 1.84709 1.699269 2.057015 2.324916 2.597118 2.617507 2.543648 2.457045 2.391065 2.35795 2.408391 2.408901 2.620391 2.77147 2.798548 2.854636 2.815524 2.80145 2.551633 2.419005 2.472208 2.580717 2.50616 2.566118 2.56527 2.68068 2.632602 2.531127 2.550556 2.472834 2.420976 2.452387 2.409657 2.270153 2.154783 2.14 2.185796 2.232532 2.202254 2.287675 2.244493 2.54562 2.394373 2.906222 -0.4 -0.4 -0.4 -0.4 -0.4 -0.4 -0.4 -0.4 -0.4 -0.4 -0.4 -0.4 -0.4 -0.4 -0.4 -0.4 -0.4 -0.4 -0.4 -0.4 -0.4 -0.4 -0.4 -0.4 -0.4 -0.4 -0.4 -0.4 -0.4 -0.4 -0.4 -0.4 -0.4 -0.4 -0.4 -0.4 -0.4 -0.4 -0.4 -0.4 -0.4 -0.4 -0.4 -0.4 -0.4 -0.4 -0.4 -0.4 -0.4 -0.4 -0.4 -0.4 -0.4 -0.4 -0.4 -0.4 -0.4 -0.4 -0.4 -0.4 -0.4 -0.4 -0.4 -0.4 -0.4 -0.4 -0.4 -0.4 -0.4 -0.4 -0.4 -0.4 -0.4 -0.4 -0.4 -0.4 -0.4 -0.4 -0.4 -0.4 -0.4 1.822851 2.788096 3.133814 18.38456 28.2087 35.70218 40.63676 42.46843 45.40295 49.32048 50.71657 52.09343 52.78459 52.34495 51.21064 49.4688 45.98991 41.4054 41.2716 40.20379 37.36898 33.99331 27.62658 23.33289 25.16326 27.41654 27.58478 25.89743 25.06241 25.29376 24.20585 22.0766 19.06653 16.0668 12.01544 8.453665 5.172477 5.270257 9.026547 9.640207 14.42821 16.77626 17.72869 18.19149 19.84411 22.66686 24.99305 25.95659 28.01063 29.6686 31.76299 35.06785 37.34663 39.3699 39.79835 41.53752 43.86229 46.01583 47.25549 48.51947 48.93485 50.66188 49.8871 48.59915 47.64827 46.26757 45.21222 42.27346 40.62027 39.08094 37.10739 33.84118 30.23326 26.54636 23.14314 18.51182 13.40376 6.833986 6.690725 7.106127 6.747553 8.850785 9.331005 13.02871 17.28086 20.58331 23.61995 26.96136 29.5368 32.36955 34.49028 36.09907 38.15099 39.46763 41.30047 42.40032 43.56237 44.72343 45.032 46.04122 46.97793 48.34975 49.05149 50.05656 52.25826 53.24236 55.06107 57.26033 59.03823 61.03163 62.9629 65.27599 67.23885 69.65822 70.59633 72.40453 73.94064 77.81394 79.97127 82.42994 84.51189 86.99749 89.28844 89.8668 91.58232 94.16843 95.78361 96.43777 97.95557 99.24773 100.4053 101.297 102.0532 102.4814 102.7921 103.9231 104.3297 104.974 105.6453 106.7521 106.6785 106.6803 106.6934 107.0947 108.2649 108.3615 108.2305 108.5006 108.1611 107.7789 107.4088 106.7608 105.0265 104.7744 105.1056 103.4976 101.9693 101.0331
40.03488 38.77708 37.99163 35.96835 34.75586 33.45221 30.85575 28.56368 26.86819 24.36954 21.12618 16.84842 16.75085 15.34637 13.15698 9.338767 3.937621 2.550745 2.166814 2.205922 2.019461 1.945895 1.931913 1.930675 2.062445 2.679925 5.15271 6.340573 6.143356 5.791974 5.19541 4.803685 2.586856 1.278479 1.58322 1.454489 1.160632 1.278778 1.368286 1.485792 1.549402 1.735785 1.648636 1.645142 1.651138 1.629457 1.669892 1.779706 1.818066 1.607058 1.501089 1.637103 1.402695 2.591036 7.859552 6.733461 1.754851 1.701777 1.57457 1.555643 1.441857 1.514504 1.358175 1.193438 1.201963 1.453512 1.45834 1.731823 1.516902 1.415799 1.689345 1.837791 1.672248 1.721438 1.888714 1.838145 1.732222 1.678055 1.708441 1.667388 1.676844 1.646955 1.62099 1.469612 1.569522 1.719392 1.99342 2.065633 1.842515 1.64346 1.839791 1.644305 2.034698 2.266605 2.121667 2.321251 2.454408 2.453255 2.419249 2.406279 2.25041 2.446728 2.462728 2.483404 2.573179 2.789916 2.832082 2.784085 2.816364 2.820136 2.491412 2.56015 2.592377 2.593087 2.567859 2.561191 2.538091 2.580838 2.557376 2.542783 2.424308 2.479319 2.467468 2.415301 2.270628 2.237893 2.320544 2.219224 2.26349 2.287801 2.30198 2.622911 2.25652 2.306404 2.431395 2.450046 2.727101 -0.4 -0.4 -0.4 -0.4 -0.4 -0.4 -0.4 -0.4 -0.4 -0.4 -0.4 -0.4 -0.4 -0.4 -0.4 -0.4 -0.4 -0.4 -0.4 -0.4 -0.4 -0.4 -0.4 -0.4 -0.4 -0.4 -0.4 -0.4 -0.4 -0.4 -0.4 -0.4 -0.4 -0.4 -0.4 -0.4 -0.4 -0.4 -0.4 -0.4 -0.4 -0.4 -0.4 -0.4 -0.4 -0.4 -0.4 -0.4 -0.4 -0.4 -0.4 -0.4 -0.4 -0.4 -0.4 -0.4 -0.4 -0.4 -0.4 -0.4 -0.4 -0.4 -0.4 -0.4 -0.4 -0.4 -0.4 -0.4 -0.4 -0.4 -0.4 -0.4 -0.4 -0.4 -0.4 -0.4 -0.4 -0.4 -0.4 -0.4 1.434588 1.935903 2.955438 3.359046 24.9055 31.91465 36.42657 39.58432 41.50818 44.14745 46.29803 49.5517 50.50633 49.22836 46.52557 41.49899 39.07028 34.35854 33.80487 33.57495 29.36129 26.87436 21.113 17.25772 18.01976 18.91498 18.82197 18.49117 19.13584 19.88541 18.93129 17.36242 14.54624 10.88681 6.438788 2.014268 2.680164 4.090129 7.554185 7.631532 9.180438 11.06395 12.65052 14.80043 17.23463 18.99886 21.11767 22.9626 24.75932 26.89189 29.21189 31.35258 33.73259 36.9473 39.6815 40.89869 42.89708 44.57 45.53372 46.29143 47.55745 48.02584 46.796 46.16845 44.97446 43.22515 41.40903 39.58654 35.57597 35.10881 33.77383 30.71939 27.69419 23.87484 19.82888 15.17754 10.08838 6.650868 6.270668 6.104197 7.661396 8.183092 10.49421 15.31782 18.01071 22.24152 24.84809 28.03261 30.82483 33.23663 35.02552 36.97079 38.85326 40.34511 41.31229 42.93414 44.00349 44.8926 44.86423 46.52286 47.81041 48.48412 49.51594 51.13134 52.32933 53.46154 55.52011 57.6543 59.22836 61.3631 62.65253 64.07632 65.62036 66.87724 67.8346 69.13894 72.34912 76.06252 78.4052 81.36994 85.02222 85.164 87.85832 91.09186 92.07556 93.32168 94.76775 96.13585 97.57435 98.93155 100.0816 101.1487 101.9797 102.2173 102.1477 102.5598 103.0332 104.1358 104.6562 106.0984 106.4997 106.6297 106.5887 106.8023 106.7992 107.3009 107.4957 107.455 107.1543 107.0106 105.437 104.9427 104.0234 104.1632 103.8533 101.2543 100.3361 99.4006
38.47641 35.68876 35.30543 34.72011 33.35859 32.36898 30.13579 28.38965 27.19395 24.1779 21.18807 17.50236 17.02023 13.46645 10.24296 7.373494 4.382674 2.535064 2.174845 2.082025 1.937292 1.874635 1.949013 2.007474 2.152287 3.727807 5.909225 6.632305 6.241492 5.689963 5.178884 3.957898 1.38096 1.60279 1.56972 1.274625 1.311841 1.398272 1.490856 1.95289 1.823489 1.771825 1.687277 1.66629 1.61122 1.652761 1.70198 1.703325 1.581544 1.643115 1.570016 1.460081 1.832689 4.931544 7.691863 6.252275 1.535808 1.453481 1.510536 1.492938 1.592356 1.358976 1.208803 1.241947 1.23873 1.159366 1.418489 1.609252 1.740199 1.314796 1.447345 1.545041 1.631279 1.571033 1.738564 1.821934 1.621886 1.609988 1.802504 1.681022 1.646782 1.607151 1.594719 1.553515 1.440059 1.743918 1.870856 1.657199 1.651657 1.790132 1.532702 1.969189 2.13848 2.102105 2.223185 2.231823 2.43122 2.438895 2.429359 2.402674 2.34842 2.412038 2.576257 2.557163 2.478634 2.832628 2.774069 2.847873 2.853502 2.573979 2.688491 2.646665 2.621393 2.514229 2.610642 2.616678 2.658453 2.526737 2.596211 2.519491 2.473382 2.447068 2.514848 2.426515 2.424475 2.333192 2.321115 2.251753 2.232148 2.263997 2.561341 2.417565 2.639384 2.004006 2.223753 2.355234 2.418352 2.49637 -0.4 -0.4 -0.4 -0.4 -0.4 -0.4 -0.4 -0.4 -0.4 -0.4 -0.4 -0.4 -0.4 -0.4 -0.4 -0.4 -0.4 -0.4 -0.4 -0.4 -0.4 -0.4 -0.4 -0.4 -0.4 -0.4 -0.4 -0.4 -0.4 -0.4 -0.4 -0.4 -0.4 -0.4 -0.4 -0.4 -0.4 -0.4 -0.4 -0.4 -0.4 -0.4 -0.4 -0.4 -0.4 -0.4 -0.4 -0.4 -0.4 -0.4 -0.4 -0.4 -0.4 -0.4 -0.4 -0.4 -0.4 -0.4 -0.4 -0.4 -0.4 -0.4 -0.4 -0.4 -0.4 -0.4 -0.4 -0.4 -0.4 -0.4 -0.4 -0.4 -0.4 -0.4 -0.4 -0.4 -0.4 -0.4 -0.4 -0.4 1.941569 2.745229 2.7943 8.088194 24.15631 27.25685 32.21965 34.54877 36.19104 39.55904 41.83606 31.88353 31.69999 29.6536 23.31721 22.37788 25.6751 23.72898 23.89201 18.26085 18.3984 16.51669 11.00445 9.540708 10.95683 10.20031 9.866741 10.14868 11.83631 10.87872 10.06367 6.310562 2.542324 2.543909 2.494487 3.078025 4.037207 6.042765 6.290249 9.824316 13.74768 15.69285 17.3096 20.63929 22.78694 25.23402 27.11054 28.63011 30.17703 31.30705 33.17225 34.49852 36.44731 37.87388 39.80611 42.24383 42.86828 43.44242 44.92651 46.11111 43.4933 43.62893 42.93904 41.93678 40.58199 38.82209 36.46499 32.40014 29.67904 29.0645 26.96065 23.74221 20.09989 16.11277 10.71998 6.978147 6.089965 5.992055 6.366415 7.342123 8.205839 12.06391 16.04107 20.27956 22.99472 26.03283 28.86251 31.74799 33.76559 36.22189 37.54067 38.82749 40.23367 41.564 42.84854 43.74834 44.68247 44.87293 45.14058 47.43645 48.58046 49.69307 50.7938 52.28546 53.81494 55.23641 57.47088 59.27588 60.72594 62.04988 62.12589 63.16395 64.80447 66.49301 68.19 69.47778 73.54025 77.22746 80.15534 84.25528 85.46415 87.95287 89.67119 92.08755 93.59564 94.53761 96.13047 97.11758 97.87498 98.58858 99.33431 99.56703 99.3001 101.9697 101.4543 101.3172 101.8694 104.1824 104.426 104.3282 106.4711 106.5221 106.4091 106.0311 106.5743 106.8172 106.5808 106.1949 105.3553 105.1094 104.2997 103.3258 103.3525 100.8866 99.50286 98.22022 97.17888
33.38237 32.23043 31.87058 31.66557 31.22818 30.56622 29.91523 27.58569 26.11035 23.75923 18.17167 17.84362 15.31 12.23941 10.31034 8.368534 5.595388 2.714016 2.496301 1.92579 2.040021 1.739487 1.942348 1.82919 2.524047 5.409121 7.175896 6.547402 6.325755 5.821596 5.326258 2.89005 1.189138 1.461396 1.299416 1.300684 1.496274 1.505517 1.735994 1.780352 1.790096 1.797405 1.720738 1.719676 1.742297 1.615127 1.72257 1.661397 1.68397 1.401779 1.642685 1.912931 2.723176 7.39687 7.645544 2.861409 1.603061 1.51315 1.466768 1.483375 1.355734 1.308706 1.194657 1.230087 1.187481 1.271728 1.546823 1.581769 1.622479 1.589202 1.147236 1.462253 1.520349 1.5847 1.566275 1.817438 1.85255 1.638468 1.609326 1.508069 1.723024 1.604976 1.535188 1.406247 1.381825 1.608168 1.545901 1.594375 1.659196 1.353469 1.676061 1.852829 1.85784 2.194119 2.31775 2.498444 2.559075 2.437299 2.337765 2.418231 2.425483 2.425184 2.491601 2.622993 2.678562 2.513494 2.70483 2.605599 2.65077 2.641194 2.640826 2.605768 2.572278 2.547652 2.643888 2.571613 2.639851 2.614135 2.56055 2.550729 2.522496 2.493104 2.49823 2.439896 2.423158 2.327096 2.349903 2.322653 2.33587 2.56 2.36145 2.335699 2.447696 2.463277 2.032661 2.289049 2.271977 2.510251 1.399475 -0.4 -0.4 -0.4 -0.4 -0.4 -0.4 -0.4 -0.4 -0.4 -0.4 -0.4 -0.4 -0.4 -0.4 -0.4 -0.4 -0.4 -0.4 -0.4 -0.4 -0.4 -0.4 -0.4 -0.4 -0.4 -0.4 -0.4 -0.4 -0.4 -0.4 -0.4 -0.4 -0.4 -0.4 -0.4 -0.4 -0.4 -0.4 -0.4 -0.4 -0.4 -0.4 -0.4 -0.4 -0.4 -0.4 -0.4 -0.4 -0.4 -0.4 -0.4 -0.4 -0.4 -0.4 -0.4 -0.4 -0.4 -0.4 -0.4 -0.4 -0.4 -0.4 -0.4 -0.4 -0.4 -0.4 -0.4 -0.4 -0.4 -0.4 -0.4 -0.4 -0.4 -0.4 -0.4 -0.4 -0.4 -0.4 -0.4 2.648844 2.638427 2.619392 3.731087 5.581179 19.79487 24.30099 26.24042 27.73477 31.00443 27.60545 19.40248 17.72868 20.19206 12.40052 9.855211 13.67386 12.99707 10.42165 7.685637 5.724589 4.111617 2.831748 2.363483 2.171635 1.973166 1.805301 1.770285 1.84573 1.945654 2.072454 2.246077 2.385124 2.639555 2.694855 3.022273 3.907143 4.685274 5.194579 10.42652 14.79348 16.90263 19.99879 23.11708 25.67597 28.88558 29.10663 31.71399 32.75538 33.58351 34.66845 36.10067 37.39953 39.22676 40.48717 41.57916 42.1153 42.22929 43.18758 39.96192 39.83977 39.9236 40.13358 39.14331 37.75645 35.95836 33.25266 29.89489 26.15582 24.63535 23.46252 19.34662 15.88104 13.12284 7.258673 6.50095 5.362665 4.728148 6.492739 7.819693 9.548137 13.79598 16.35156 19.44193 24.33002 26.17893 29.43351 31.83592 34.0769 35.60909 37.04259 38.09921 38.96402 40.1211 41.65682 43.47392 44.36161 44.96383 45.64282 47.62351 47.95896 48.90293 50.7098 51.81931 53.2354 54.6757 56.88432 57.57954 59.40975 59.61339 58.86562 61.89748 64.4573 66.98843 68.89513 69.51811 72.94804 75.99826 79.29163 83.61591 85.41937 86.9045 88.9862 90.25917 92.12952 93.40193 94.29773 95.59229 96.09461 96.95229 97.56512 97.50947 98.48877 99.05122 100.7215 101.0906 100.7366 101.6672 103.9047 104.0732 104.2481 106.2779 104.8846 105.4054 105.9823 105.9959 105.7988 105.0461 104.7269 104.128 102.3538 102.5815 100.8408 99.57292 97.67194 96.76397 95.41328
32.73657 30.82336 29.57386 28.53324 28.72684 28.40293 27.20017 25.91134 24.53322 22.26567 18.67256 18.15767 14.66036 11.94162 9.402075 8.663536 6.197696 2.601101 2.570096 2.404454 1.768256 1.944001 1.688518 1.728746 3.575542 6.252587 6.920839 6.66061 6.344364 5.989347 4.755866 1.605913 1.566352 1.280477 1.379825 1.53051 1.666622 1.51539 1.815665 1.799075 1.756702 1.762491 1.756778 1.676938 1.754438 1.559732 1.732474 1.596656 1.623432 1.830045 1.846605 1.894988 4.049662 7.849256 6.767394 1.787118 1.440748 1.557005 1.461403 1.417342 1.343636 1.331516 1.421092 1.214302 1.359218 1.461591 1.495431 1.557384 1.450693 1.625894 1.474697 1.24672 1.557214 1.663965 1.645293 1.617411 1.579974 1.697281 1.611886 1.577755 1.529799 1.423774 1.328043 1.314181 1.625492 1.37055 1.606928 1.624401 1.434059 1.77104 1.856602 2.090377 2.066275 2.045205 2.374227 2.47114 2.544626 2.382188 2.282861 2.43 2.43 2.43 2.323015 2.346203 2.575354 2.73686 2.508889 2.54576 2.635919 2.737352 2.668798 2.607611 2.67438 2.632767 2.625803 2.644315 2.556113 2.4917 2.579265 2.555543 2.45222 2.659864 2.406566 2.379266 2.456936 2.408941 2.454842 2.435731 2.605354 2.570271 2.372942 2.473398 2.428383 2.567039 2.272394 2.020236 2.339326 2.169731 2.545674 0.2906066 -0.4 -0.4 -0.4 -0.4 -0.4 -0.4 -0.4 -0.4 -0.4 -0.4 -0.4 -0.4 -0.4 -0.4 -0.4 -0.4 -0.4 -0.4 -0.4 -0.4 -0.4 -0.4 -0.4 -0.4 -0.4 -0.4 -0.4 -0.4 -0.4 -0.4 -0.4 -0.4 -0.4 -0.4 -0.4 -0.4 -0.4 -0.4 -0.4 -0.4 -0.4 -0.4 -0.4 -0.4 -0.4 -0.4 -0.4 -0.4 -0.4 -0.4 -0.4 -0.4 -0.4 -0.4 -0.4 -0.4 -0.4 -0.4 -0.4 -0.4 -0.4 -0.4 -0.4 -0.4 -0.4 -0.4 -0.4 -0.4 -0.4 -0.4 -0.4 -0.4 -0.4 -0.4 -0.4 -0.4 -0.4 -0.4 2.048564 2.487921 2.423006 2.35722 2.3622 5.230354 11.82856 13.26952 13.65261 18.66567 15.03122 4.443239 5.168281 4.171993 3.554384 3.561895 3.65586 3.636547 3.521711 3.311332 3.074338 2.58534 2.398795 2.262041 2.078651 1.781544 1.772059 1.831653 1.799774 1.851121 1.880735 1.991298 2.271211 2.325125 2.332052 2.45679 3.088983 3.959809 4.780021 10.42651 15.30471 18.76405 21.67887 24.13427 28.50969 29.53251 31.33234 32.32045 33.79023 34.79258 35.85768 37.11101 38.16493 39.08789 39.69437 39.75076 39.69096 39.89432 39.19117 38.20189 38.01063 38.05669 36.5457 35.20929 34.22854 32.7266 30.41795 27.36522 23.9335 20.56586 18.33792 14.77132 10.96267 5.944922 5.125473 4.803024 4.365483 5.643619 6.044215 8.723719 10.61769 13.01138 17.34053 20.94203 21.21504 26.09796 28.10905 30.86972 31.85937 34.09214 35.36934 35.96549 36.77902 37.93878 39.38195 41.0308 43.17705 43.8602 44.2099 45.2148 47.10552 48.31398 49.62889 50.65462 52.24328 53.69183 55.74561 55.71754 54.21292 54.42807 57.90434 62.65604 64.13335 67.30833 69.01804 69.80763 73.27627 75.92804 78.58794 81.74783 83.45428 85.91621 88.43968 89.40643 91.17625 91.92577 93.90145 94.20678 94.84 95.00513 95.89011 96.6044 96.86253 96.90649 98.34177 99.95744 100.7552 100.7149 102.5751 103.4424 103.9829 103.6661 104.1278 105.0585 105.2532 105.0557 104.8309 104.2835 103.5661 101.458 101.82 100.6175 99.29338 97.86175 96.3268 95.03835 93.91895
33.6978 31.29969 28.749 26.76321 26.08045 25.55989 25.02105 23.92023 22.61526 19.44324 19.01639 16.47853 14.18387 13.48647 10.67273 7.579472 3.010331 2.653127 2.584398 1.964042 1.938834 1.810315 1.730515 1.849233 5.356529 7.82616 7.032979 6.960457 6.567195 5.905476 3.98976 1.307941 1.25259 1.386274 1.546438 1.60537 1.510742 1.630158 1.665657 1.749638 1.67678 1.727066 1.735967 1.666256 1.661826 1.718047 1.533761 1.961979 1.807215 1.925852 1.835669 2.701235 6.969047 7.57284 4.254868 1.688595 1.448089 1.429646 1.399985 1.227884 1.31389 1.331282 1.52085 1.448102 1.413309 1.534148 1.586924 1.399067 1.358249 1.484043 1.54685 1.25465 1.224926 1.43078 1.482637 1.453217 1.312248 1.327076 1.409191 1.478391 1.565261 1.509242 1.574337 1.627497 1.269531 1.552526 1.458892 1.381367 2.003544 1.969742 1.979534 2.173359 2.295241 2.178949 2.134724 2.400257 2.473468 2.461768 2.475738 2.48039 2.43 2.404308 2.57219 2.590649 2.571596 2.446635 2.719653 2.638454 2.66167 2.71571 2.83236 2.737366 2.663622 2.580107 2.626368 2.560133 2.526328 2.479056 2.600189 2.42032 2.535899 2.468186 2.48483 2.465997 2.454493 2.285349 2.58894 2.639435 2.604382 2.57047 2.47472 2.429358 2.343413 2.412253 2.555708 2.238665 2.01068 2.277058 2.042382 2.541349 -0.4 -0.4 -0.4 -0.4 -0.4 -0.4 -0.4 -0.4 -0.4 -0.4 -0.4 -0.4 -0.4 -0.4 -0.4 -0.4 -0.4 -0.4 -0.4 -0.4 -0.4 -0.4 -0.4 -0.4 -0.4 -0.4 -0.4 -0.4 -0.4 -0.4 -0.4 -0.4 -0.4 -0.4 -0.4 -0.4 -0.4 -0.4 -0.4 -0.4 -0.4 -0.4 -0.4 -0.4 -0.4 -0.4 -0.4 -0.4 -0.4 -0.4 -0.4 -0.4 -0.4 -0.4 -0.4 -0.4 -0.4 -0.4 -0.4 -0.4 -0.4 -0.4 -0.4 -0.4 -0.4 -0.4 -0.4 -0.4 -0.4 -0.4 -0.4 -0.4 -0.4 -0.4 -0.4 -0.4 -0.4 -0.4 2.172078 2.228987 2.129812 2.446215 2.413193 2.563527 2.658145 2.713667 2.846679 2.873489 3.083091 3.246736 3.328757 3.436561 3.457566 3.624481 3.471302 3.581578 3.478078 1.759255 -0.1081223 -0.4 -0.4 -0.4 -0.4 -0.4 -0.4 -0.4 -0.4 -0.4 -0.4 -0.4 -0.4 2.22368 2.164755 2.427727 2.714888 3.128358 3.834408 10.26591 15.73092 19.2873 22.14793 25.18867 28.13206 29.94013 31.47003 32.58628 33.74451 35.02558 36.06887 36.91359 37.51297 38.4096 38.41453 37.81241 38.19605 38.27692 36.80877 36.75362 35.53291 33.51167 32.46849 31.09805 29.54434 29.34491 27.44172 24.47309 21.4274 16.57634 13.15967 8.867323 4.389421 3.875156 3.900692 3.98408 4.801675 5.155066 8.620184 10.04597 12.69947 14.15487 16.19662 19.07374 20.53843 21.11622 24.95996 26.73671 29.36105 30.13214 31.095 32.26045 33.38437 34.93282 37.04153 38.32198 39.83278 40.78062 41.56091 41.90719 43.42283 45.24812 46.6495 48.52217 49.46176 50.72088 50.6829 49.16368 48.3189 53.00584 57.89482 59.62116 62.19603 66.31994 68.72545 70.4116 72.57767 74.76861 77.18781 79.49081 81.36636 83.99166 85.14596 87.32394 90.31206 91.2949 91.25062 92.0555 92.417 92.86655 92.12041 95.24694 94.73992 94.9835 96.72449 97.57895 99.42665 100.7011 100.7539 101.2168 102.5425 102.7967 103.7986 104.2277 104.3295 104.2865 103.8241 103.2622 100.6835 101.0606 101.0245 98.90903 97.56117 96.55861 95.06194 93.81567 92.18058
34.63776 32.23814 29.81999 27.23492 25.09554 24.05994 22.19818 21.8762 20.34781 19.65269 17.72462 15.47807 14.20484 13.19118 12.20519 6.999703 4.461875 2.660527 2.213745 2.017477 2.161462 1.781855 1.838367 1.590336 4.490682 6.449771 7.306002 6.957499 6.925362 4.523462 1.623489 1.568843 1.575455 1.589165 1.58309 1.649038 1.68644 1.583153 1.678339 1.694865 1.69038 1.647586 1.487327 1.741357 1.564048 1.699089 1.69985 1.799105 1.710934 1.757016 2.200372 4.554806 7.639902 7.407291 4.174816 1.31735 1.466037 1.27485 1.305774 1.348764 1.282418 1.247763 1.34092 1.244362 1.238455 1.524229 1.275362 1.318714 1.313682 1.422304 1.494039 1.451389 0.9760553 1.221398 1.245273 1.384853 1.284999 1.189451 1.212704 1.633954 1.557508 1.335743 1.450018 1.427616 1.572911 1.358838 1.428449 1.392148 1.641076 1.828309 1.909387 1.954749 2.306979 2.373275 2.145665 2.250007 2.396135 2.490726 2.51379 2.443594 2.463848 2.530228 2.718384 2.624864 2.62478 2.727438 2.542935 2.640439 2.553864 2.786598 2.77 2.800056 2.647551 2.576466 2.527182 2.603839 2.559559 2.56154 2.413762 2.38988 2.462611 2.481008 2.555524 2.337183 2.341328 2.557992 2.592555 2.609134 2.577253 2.568781 2.592339 2.422489 2.383868 2.441294 2.27314 2.211838 2.164424 1.945847 2.215515 2.008837 2.631458 -0.4 -0.4 -0.4 -0.4 -0.4 -0.4 -0.4 -0.4 -0.4 -0.4 -0.4 -0.4 -0.4 -0.4 -0.4 -0.4 -0.4 -0.4 -0.4 -0.4 -0.4 -0.4 -0.4 -0.4 -0.4 -0.4 -0.4 -0.4 -0.4 -0.4 -0.4 -0.4 -0.4 -0.4 -0.4 -0.4 -0.4 -0.4 -0.4 -0.4 -0.4 -0.4 -0.4 -0.4 -0.4 -0.4 -0.4 -0.4 -0.4 -0.4 -0.4 -0.4 -0.4 -0.4 -0.4 -0.4 -0.4 -0.4 -0.4 -0.4 -0.4 -0.4 -0.4 -0.4 -0.4 -0.4 -0.4 -0.4 -0.4 -0.4 -0.4 -0.4 -0.4 -0.4 -0.4 -0.4 1.433429 2.246302 0.8206552 -0.4 -0.4 -0.4 -0.4 -0.2027042 1.43602 1.594557 1.852924 2.34756 2.361908 2.685702 1.307376 0.313857 0.3221457 -0.05838009 -0.4 -0.4 -0.4 -0.4 -0.4 -0.4 -0.4 -0.4 -0.4 -0.4 -0.4 -0.4 -0.4 -0.4 -0.4 -0.4 -0.4 -0.4 2.402531 2.225289 2.308571 2.980414 5.479723 15.70695 18.72865 21.9722 25.51112 28.21572 29.88445 31.30909 32.29436 33.43303 34.29595 34.82684 35.64749 36.49897 36.90537 36.55139 36.08868 36.36631 34.63908 32.82582 31.65917 31.32722 29.9116 28.6721 26.52081 23.81958 24.12184 23.29305 20.64251 17.72136 12.76218 8.588413 4.130486 3.893755 3.623353 3.624539 4.164272 4.442309 6.908127 9.907253 11.35418 13.71219 13.97261 15.86625 18.22675 18.39017 20.83057 21.19417 21.85387 23.43279 23.55161 25.19355 26.52688 27.63808 29.5255 31.11914 34.41967 35.96013 36.97845 37.29073 38.42025 39.17386 39.08282 41.45152 42.43701 44.97107 46.08574 44.28858 44.36927 47.54986 52.84256 56.88255 59.39312 62.25333 64.31172 66.14273 68.23445 70.44927 72.5292 74.7551 77.08508 79.02832 80.55952 81.7696 83.07312 85.30585 85.95486 85.8914 86.88593 87.68362 87.99219 87.83745 89.13737 90.72055 92.75311 94.15414 96.02094 97.66133 99.83035 100.5875 100.6534 101.2745 101.9596 103.1545 103.3162 103.465 103.2376 102.7425 101.0734 100.2076 100.2388 99.0543 97.86012 96.81552 95.26917 93.99654 93.53284 90.94261
34.8735 32.92658 30.49983 28.20466 25.64964 23.56136 22.03841 21.32091 20.60873 18.72756 16.50656 15.72845 13.60273 12.91016 9.254394 7.48839 4.876744 2.749605 2.500149 2.325397 1.846465 1.741244 1.605299 1.732416 1.897575 3.85419 7.448328 7.345938 6.073215 2.37639 1.877936 1.725515 1.674518 1.601774 1.663177 1.676619 1.742687 1.57336 1.512346 1.617175 1.474832 1.592791 1.652788 1.626089 1.752958 1.809975 1.846474 1.818275 1.905308 2.041328 3.65331 6.098479 7.684425 6.266021 1.559752 1.308979 1.236434 1.338989 1.345845 1.301426 1.214043 1.253384 1.213861 1.325876 1.240465 1.145915 1.287794 1.420275 1.372274 1.315616 1.244009 1.456877 1.288978 1.133705 1.306198 1.278033 1.330779 1.339756 1.135947 1.314764 1.549596 1.636371 1.525815 1.572128 1.475618 1.40098 1.233096 1.425808 1.578649 1.607079 1.900239 2.082144 2.066846 2.407422 2.259253 2.25626 2.376678 2.466143 2.541774 2.62058 2.445386 2.560717 2.596961 2.578581 2.560638 2.624787 2.652867 2.459535 2.573612 2.686245 2.733428 2.695127 2.566685 2.564168 2.535262 2.534864 2.424432 2.416241 2.470699 2.556092 2.53271 2.537038 2.432761 2.428865 2.531265 2.506615 2.597399 2.584036 2.581242 2.581501 2.607018 2.597458 2.457492 2.418952 2.383161 2.140633 2.112421 1.864668 1.932473 2.10536 2.169732 2.356623 -0.4 -0.4 -0.4 -0.4 -0.4 -0.4 -0.4 -0.4 -0.4 -0.4 -0.4 -0.4 -0.4 -0.4 -0.4 -0.4 -0.4 -0.4 -0.4 -0.4 -0.4 -0.4 -0.4 -0.4 -0.4 -0.4 -0.4 -0.4 -0.4 -0.4 -0.4 -0.4 -0.4 -0.4 -0.4 -0.4 -0.4 -0.4 -0.4 -0.4 -0.4 -0.4 -0.4 -0.4 -0.4 -0.4 -0.4 -0.4 -0.4 -0.4 -0.4 -0.4 -0.4 -0.4 -0.4 -0.4 -0.4 -0.4 -0.4 -0.4 -0.4 -0.4 -0.4 -0.4 -0.4 -0.4 -0.4 -0.4 -0.4 -0.4 -0.4 -0.4 -0.4 -0.4 -0.4 2.271798 2.269065 -0.4 -0.4 -0.4 -0.4 -0.4 -0.4 -0.4 -0.4 -0.4 -0.4 -0.4 -0.4 -0.4 -0.4 -0.4 -0.4 -0.4 -0.4 -0.4 -0.4 -0.4 -0.4 -0.4 -0.4 -0.4 -0.4 -0.4 -0.4 -0.4 -0.4 -0.4 -0.4 -0.4 -0.4 -0.4 2.232786 2.166507 2.212673 2.41555 13.67304 18.03049 21.13228 24.60758 27.01918 28.35872 29.74468 31.54717 32.33836 33.38368 34.00361 33.73926 34.42077 34.42426 33.88656 35.06554 33.88714 32.61652 30.34663 28.1291 27.61458 26.50002 25.11551 23.1996 20.49229 19.46654 19.22356 17.28745 13.57931 9.108351 5.75972 3.860784 3.289127 2.66178 3.419203 3.877899 4.658993 9.207955 10.04452 12.30528 12.73501 13.56857 13.56778 14.38166 17.32406 18.59843 19.55739 20.60702 21.02313 19.60443 20.48824 21.48353 23.11316 25.77078 26.67085 28.25809 29.29442 30.31446 31.7246 33.22298 34.36694 33.42068 34.68193 36.48971 37.79792 40.50209 41.77214 43.23294 46.81934 51.28671 54.5899 57.41494 59.36959 61.38606 62.41273 64.85536 67.1233 69.42455 71.44714 73.82257 75.22863 76.28274 76.90711 78.14494 79.28635 79.78793 79.69491 81.62462 82.75358 82.14948 84.92131 86.93231 89.101 91.00787 92.00723 94.4961 96.38747 97.78838 99.57548 99.88438 100.3807 101.1679 101.7285 102.0564 102.2616 102.1596 101.4498 99.30253 99.5363 99.4229 98.12635 96.07249 95.452 94.16175 92.83314 91.81007 90.25937
35.20314 33.47196 31.04361 28.90197 26.33842 23.87943 22.21833 21.71421 20.77452 17.39587 16.4906 15.71324 14.22948 12.98189 11.19061 6.592663 5.060027 2.944058 2.542363 2.023694 1.86906 2.63023 2.016505 1.828956 1.838316 2.367591 4.962767 6.689661 3.304206 1.913346 1.665041 1.7611 1.733813 1.781315 1.649874 1.82264 1.766255 1.586684 1.573404 1.476051 1.674026 1.52641 1.793841 1.723541 1.801886 1.89439 1.883454 2.014863 2.38003 2.123866 4.474039 7.558335 7.295545 3.846666 1.23439 1.391504 1.279508 1.246274 1.158407 1.201101 1.180574 1.231694 1.207307 1.172779 1.2653 1.182529 1.316511 1.240451 1.318102 1.318058 1.304178 1.323062 1.461234 1.095462 1.177842 1.349913 1.402089 1.416947 1.324788 1.238916 1.439156 1.56098 1.600258 1.346893 1.463776 1.354374 1.513055 1.510051 1.533869 1.513973 1.546885 2.209751 2.237654 2.262432 2.45833 2.250155 2.281702 2.418577 2.48 2.454958 2.879814 2.526864 2.552574 2.620458 2.591808 2.609307 2.641658 2.649778 2.499252 2.420498 2.610251 2.518464 2.649306 2.538109 2.522931 2.423893 2.397174 2.522318 2.582593 2.515055 2.586737 2.446256 2.550962 2.578841 2.480661 2.468904 2.564051 2.605195 2.593962 2.594221 2.588678 2.528829 2.426477 2.35932 2.321625 2.38589 1.919245 2.070624 1.676847 1.978595 2.046714 2.094549 1.732167 -0.4 -0.4 -0.4 -0.4 -0.4 -0.4 -0.4 -0.4 -0.4 -0.4 -0.4 -0.4 -0.4 -0.4 -0.4 -0.4 -0.4 -0.4 -0.4 -0.4 -0.4 -0.4 -0.4 -0.4 -0.4 -0.4 -0.4 -0.4 -0.4 -0.4 -0.4 -0.4 -0.4 -0.4 -0.4 -0.4 -0.4 -0.4 -0.4 -0.4 -0.4 -0.4 -0.4 -0.4 -0.4 -0.4 -0.4 -0.4 -0.4 -0.4 -0.4 -0.4 -0.4 -0.4 -0.4 -0.4 -0.4 -0.4 -0.4 -0.4 -0.4 -0.4 -0.4 -0.4 -0.4 -0.4 -0.4 -0.4 -0.4 -0.4 -0.4 -0.4 -0.4 2.360784 2.354525 -0.05142202 -0.4 -0.4 -0.4 -0.4 -0.4 -0.4 -0.4 -0.4 -0.4 -0.4 -0.4 -0.4 -0.4 -0.4 -0.4 -0.4 -0.4 -0.4 -0.4 -0.4 -0.4 -0.4 -0.4 -0.4 -0.4 -0.4 -0.4 -0.4 -0.4 -0.4 -0.4 -0.4 -0.4 -0.4 -0.4 -0.4 -0.3069819 2.020812 1.990482 9.529855 16.90712 20.5 22.90055 26.62628 27.09596 29.30256 30.29617 31.19798 31.29825 31.7211 31.87547 30.98751 31.64381 32.28709 32.54603 31.86961 29.67197 26.42836 24.99581 23.10458 22.65424 21.2666 19.76434 17.61782 14.81123 14.17364 12.20485 8.565221 5.401936 2.781844 3.06755 2.356283 2.595599 3.074588 3.886168 4.510233 8.071067 9.259231 9.812396 9.783447 8.73667 11.01199 13.8755 16.14427 17.55943 18.65625 20.32054 21.23287 22.81401 22.83369 22.74168 23.32617 25.81202 24.50412 24.24597 25.88574 27.11436 27.83504 29.1379 31.4487 32.84239 35.12666 35.42148 39.5903 40.53809 41.43263 42.66925 45.36252 48.00223 49.75803 52.65377 55.10308 56.7495 59.12075 60.68377 62.56445 64.91989 66.91854 68.07465 68.91549 70.37444 71.55621 71.97878 72.62186 73.90842 74.19155 77.27988 78.2019 78.12655 82.87339 86.64983 88.65761 90.37189 92.23259 93.92389 95.55899 97.75663 98.44462 99.03809 99.51286 100.2698 100.7025 101.1507 101.0123 100.9353 98.49158 98.79043 98.96093 98.12793 96.77926 95.95668 95.16121 92.99931 91.97749 90.53195 89.26085
35.18174 33.70944 31.53255 29.41188 27.03859 25.09099 22.60843 22.29469 21.54855 18.17274 16.74253 16.02226 14.48658 13.24464 12.22324 5.990932 5.551387 2.907527 2.305155 2.541907 4.067169 5.016306 3.862463 1.769837 1.849226 1.731384 3.393306 3.085987 1.724018 1.654631 1.690291 1.847414 1.820035 1.710229 1.704872 1.647712 1.713841 1.394183 1.520097 1.498689 1.480522 1.644321 1.78471 1.76981 1.905782 1.843143 1.968927 2.048129 2.163657 2.55106 6.796432 7.82465 6.430096 1.394486 1.317355 1.270805 1.329697 1.16954 1.247993 1.207001 1.262323 1.21708 1.217218 1.223219 1.286693 1.433877 1.486217 1.269796 1.281786 1.269006 1.273934 1.208613 1.409697 1.311586 0.8750103 1.333286 1.34693 1.292788 1.189087 1.019203 1.439672 1.503029 1.421652 1.464099 1.22555 1.350992 1.451372 1.411237 1.285858 1.365141 1.450121 1.975367 2.058597 2.143933 2.36889 2.412617 2.176934 2.276881 2.415203 2.593134 2.70578 2.656996 2.571031 2.602125 2.591713 2.638579 2.686208 2.589078 2.456649 2.517442 2.351944 2.489501 2.533953 2.569979 2.432539 2.383714 2.469469 2.521281 2.545964 2.634009 2.631281 2.58551 2.686669 2.614153 2.537673 2.54215 2.601328 2.556087 2.70643 2.663591 2.577831 2.5195 2.400561 2.290193 2.259287 2.365642 1.719994 1.894707 1.839351 1.710347 1.931629 1.939827 2.27451 1.161918 -0.4 -0.4 -0.4 -0.4 -0.4 -0.4 -0.4 -0.4 -0.4 -0.4 -0.4 -0.4 -0.4 -0.4 -0.4 -0.4 -0.4 -0.4 -0.4 -0.4 -0.4 -0.4 -0.4 -0.4 -0.4 -0.4 -0.4 -0.4 -0.4 -0.4 -0.4 -0.4 -0.4 -0.4 -0.4 -0.4 -0.4 -0.4 -0.4 -0.4 -0.4 -0.4 -0.4 -0.4 -0.4 -0.4 -0.4 -0.4 -0.4 -0.4 -0.4 -0.4 -0.4 -0.4 -0.4 -0.4 -0.4 -0.4 -0.4 -0.4 -0.4 -0.4 -0.4 -0.4 -0.4 -0.4 -0.4 -0.4 -0.4 -0.4 -0.4 -0.4 2.581279 2.111 -0.4 -0.4 -0.4 -0.4 -0.4 -0.4 -0.4 -0.4 -0.4 -0.4 -0.4 -0.4 -0.4 -0.4 -0.4 -0.4 -0.4 -0.4 -0.4 -0.4 -0.4 -0.4 -0.4 -0.4 -0.4 -0.4 -0.4 -0.4 -0.4 -0.4 -0.4 -0.4 -0.4 -0.4 -0.4 -0.4 -0.4 -0.4 -0.4 1.914505 1.955103 13.35087 18.21081 21.22463 22.66167 26.35968 27.71876 28.09489 28.84041 29.83212 29.72585 29.81643 29.71678 30.31941 29.91708 29.5321 27.2088 27.30038 25.13412 22.38546 19.97752 18.41433 17.27679 14.89426 13.05188 9.631906 9.183252 7.462308 4.022731 2.448006 2.376258 2.646066 2.372258 2.462924 2.729305 4.255967 4.991336 5.670027 7.067409 8.692506 9.863947 11.24782 12.61277 14.21484 15.66647 17.06223 18.56211 19.90164 21.30725 22.63011 23.92354 25.08488 26.09772 26.97102 27.91644 28.18271 28.21694 29.44275 30.81329 31.98942 33.26952 35.39576 36.50793 39.01263 39.7415 40.29065 41.00387 42.25504 42.62584 45.18946 46.77226 47.55502 49.29461 51.99419 54.86913 56.57175 58.58858 60.47109 61.18998 61.32086 62.7663 64.51872 64.41441 64.56497 65.29386 68.07421 69.88727 74.01311 76.73241 78.60629 82.17228 85.10131 88.27509 90.47646 92.29844 94.08901 94.51521 97.14989 97.78914 98.64439 99.25199 99.4729 99.9164 100.1048 99.94391 97.72393 98.00728 98.08901 97.87418 96.36944 95.92153 94.68018 93.41823 92.08289 90.69189 89.85894 88.72366
35.26218 33.8104 31.89545 30.17711 27.84232 27.32577 24.22588 22.88266 22.66488 20.41071 18.82505 16.92954 14.44594 13.28196 12.57264 10.39909 7.792296 4.51479 2.391764 4.737316 6.526372 7.031241 6.213664 3.391361 1.720836 1.758591 1.744916 1.681295 1.759727 1.852051 1.982895 1.883515 1.881444 1.749337 1.587319 1.419378 1.412598 1.519526 1.349822 1.456538 1.574541 1.656188 1.841555 1.833724 1.861263 1.985135 2.042181 1.865655 2.276037 5.563653 7.608096 6.818061 3.350614 1.287835 1.242745 1.157157 1.153377 1.163826 1.26096 1.203689 1.196124 1.337394 1.269156 1.337406 1.457108 1.468255 1.464736 1.410724 1.288095 1.265498 1.379566 1.386367 1.198743 1.428583 1.259091 1.114969 1.229164 1.145023 1.318773 1.399172 1.212085 1.311421 1.357216 1.34396 1.364362 1.258517 1.398472 1.594946 1.305249 1.404853 1.593213 1.710879 2.108971 2.066575 2.187073 2.430645 2.310637 2.34694 2.734525 2.659301 2.65469 2.763809 2.705239 2.679283 2.668954 2.658624 2.656143 2.638113 2.622359 2.444034 2.522391 2.209213 2.4915 2.466671 2.422778 2.429426 2.561888 2.595933 2.656562 2.648967 2.749676 2.593405 2.632929 2.632854 2.573592 2.611297 2.646096 2.643739 2.633439 2.464608 2.477324 2.442056 2.393127 2.270951 2.209368 1.634362 1.562672 1.672291 1.575213 1.713633 1.794784 1.946497 2.045627 2.278526 0.8638497 -0.4 -0.4 -0.4 -0.4 -0.4 -0.4 -0.4 -0.4 -0.4 -0.4 -0.4 -0.4 -0.4 -0.4 -0.4 -0.4 -0.4 -0.4 -0.4 -0.4 -0.4 -0.4 -0.4 -0.4 -0.4 -0.4 -0.4 -0.4 -0.4 -0.4 -0.4 -0.4 -0.4 -0.4 -0.4 -0.4 -0.4 -0.4 -0.4 -0.4 -0.4 -0.4 -0.4 -0.4 -0.4 -0.4 -0.4 -0.4 -0.4 -0.4 -0.4 -0.4 -0.4 -0.4 -0.4 -0.4 -0.4 -0.4 -0.4 -0.4 -0.4 -0.4 -0.4 -0.4 -0.4 -0.4 -0.4 -0.4 -0.4 -0.4 2.71446 2.59 -0.4 -0.4 -0.4 -0.4 -0.4 -0.4 -0.4 -0.4 -0.4 -0.4 -0.4 -0.4 -0.4 -0.4 -0.4 -0.4 -0.4 -0.4 -0.4 -0.4 -0.4 -0.4 -0.4 -0.4 -0.4 -0.4 -0.4 -0.4 -0.4 -0.4 -0.4 -0.4 -0.4 -0.4 -0.4 -0.4 -0.4 -0.4 -0.4 -0.4 0.08562597 1.906856 1.854682 12.22494 17.03485 20.36621 20.60494 23.14322 25.87764 23.75644 25.96744 26.58556 27.65957 27.13269 27.68367 27.69847 26.40095 25.19619 23.4183 21.43913 19.25255 16.79155 14.35773 12.62702 11.05968 8.95531 8.088192 6.303288 3.699243 2.319823 2.310462 2.419365 2.412817 2.12455 2.268951 3.021 3.636081 5.759645 6.626293 7.59116 8.741758 10.02197 11.37068 12.87939 15.42475 16.04051 17.45666 20.27376 22.63071 24.43219 26.05075 25.66408 27.11967 27.6727 27.5529 28.37696 29.48207 30.40869 31.38651 32.45986 33.54459 34.67595 35.88238 37.21461 38.77576 40.21538 40.84914 39.96875 39.65473 39.93483 40.40804 40.53115 42.38648 43.59227 47.59536 50.60019 52.90578 55.01817 56.1521 56.2307 56.27874 57.55417 58.76379 60.76524 63.66815 66.89246 69.153 71.82436 74.70386 77.68332 80.48648 83.07742 86.07887 88.95097 91.59598 92.69305 94.27699 95.35217 96.41282 97.42876 98.54874 98.67104 98.99079 98.90712 98.54103 97.25069 97.24 97.30945 97.51522 96.67721 95.62025 94.34216 93.53223 91.95957 91.03783 89.59223 88.54714 87.57892
35.00776 33.85892 32.48761 29.86332 27.93403 27.63079 27.03029 23.59445 23.67414 22.89585 20.39324 17.80556 16.22475 13.6853 12.37206 11.70185 9.753978 6.214809 4.596082 6.944283 7.855765 8.341936 8.546046 5.013818 2.230411 1.900431 1.534808 1.764885 1.791248 2.182398 2.172065 1.920223 1.774739 1.774772 1.372992 1.493801 1.362363 1.507773 1.75515 1.420826 1.533182 1.749679 1.812105 1.880591 1.74981 1.87141 1.999619 2.038023 3.550268 7.391392 7.805375 5.879957 0.8363699 1.295676 1.148925 1.211816 1.21901 1.268306 1.187774 1.250682 1.232285 1.276192 1.388147 1.414489 1.423159 1.423102 1.424995 1.433765 1.480727 1.440149 1.613566 1.597653 1.285554 1.217085 1.443573 1.107699 1.059941 1.40801 1.468627 1.185627 1.28873 1.266506 1.305346 1.288181 1.425979 1.404295 1.273814 1.433432 1.420223 1.168542 1.538339 1.775178 1.988244 2.27828 2.144702 2.326655 2.523739 1.962158 1.935362 2.694522 2.670681 2.809502 2.79506 2.756442 2.746112 2.764485 2.752635 2.724318 2.726319 2.666284 2.407685 2.517604 2.326051 2.546222 2.55504 2.637151 2.634216 2.64991 2.651845 2.613379 2.548722 2.566555 2.613785 2.590013 2.644599 2.634377 2.674623 2.61804 2.649839 2.389246 2.389446 2.404925 2.349715 2.060477 1.583078 1.639009 1.560826 1.488936 1.530312 1.37062 1.811782 1.814277 2.118037 2.036905 2.30885 0.4465668 -0.4 -0.4 -0.4 -0.4 -0.4 -0.4 -0.4 -0.4 -0.4 -0.4 -0.4 -0.4 -0.4 -0.4 -0.4 -0.4 -0.4 -0.4 -0.4 -0.4 -0.4 -0.4 -0.4 -0.4 -0.4 -0.4 -0.4 -0.4 -0.4 -0.4 -0.4 -0.4 -0.4 -0.4 -0.4 -0.4 -0.4 -0.4 -0.4 -0.4 -0.4 -0.4 -0.4 -0.4 -0.4 -0.4 -0.4 -0.4 -0.4 -0.4 -0.4 -0.4 -0.4 -0.4 -0.4 -0.4 -0.4 -0.4 -0.4 -0.4 -0.4 -0.4 -0.4 -0.4 -0.4 -0.4 -0.4 -0.4 0.976014 2.859768 1.799326 -0.4 -0.4 -0.4 -0.4 -0.4 -0.4 -0.4 -0.4 -0.4 -0.4 -0.4 -0.4 -0.4 -0.4 -0.4 -0.4 -0.4 -0.4 -0.4 -0.4 -0.4 -0.4 -0.4 -0.4 -0.4 -0.4 -0.4 -0.4 -0.4 -0.4 -0.4 -0.4 -0.4 -0.4 -0.4 -0.4 -0.4 -0.4 -0.4 -0.4 -0.4 1.733216 1.801919 1.551778 5.739825 11.68472 16.969 19.9926 22.39382 22.58092 23.15249 23.34959 23.89311 24.68878 25.36291 24.7562 22.98969 21.151 19.74774 17.69986 15.72716 12.47331 10.2739 8.046088 6.440067 5.087255 4.740414 3.197615 2.058519 1.884961 1.909151 2.025181 1.962726 2.131228 2.51595 4.429684 6.063581 7.254706 9.713099 11.93784 12.23084 13.04805 14.31003 15.33979 17.39941 18.90693 19.33058 21.68474 23.41202 24.7356 27.03713 28.0598 29.87333 31.17025 31.60892 30.83344 30.48661 31.44707 32.67573 32.98479 32.97668 35.34092 37.57193 38.48646 40.3005 40.63269 42.56383 44.02893 45.09189 44.53051 44.05025 45.2421 47.24467 48.19881 46.14024 46.7958 51.37055 54.59134 55.02679 55.22479 58.56601 60.79774 62.28201 63.92815 67.3927 70.05598 73.268 73.9733 76.47207 78.88573 78.76576 83.79037 86.96822 89.56808 91.67689 92.06106 94.39346 94.90675 95.71329 97.34318 97.82955 97.94272 97.99778 98.04464 97.65285 96.5884 96.56825 96.7349 96.04087 95.49669 94.41799 93.22888 92.2252 91.26392 89.97706 88.64429 87.60911 86.27456
34.987 33.61425 32.46653 31.62584 28.02531 27.77445 27.41392 25.80936 24.4313 24.40921 22.64172 19.58296 17.75739 14.61052 12.93535 11.62807 10.6134 7.755789 7.628337 8.481091 8.882775 9.058987 9.081473 6.623407 3.907962 1.736693 1.887419 1.588208 2.06429 2.121043 2.062042 1.9496 1.699935 1.732817 1.558531 1.406792 1.606146 1.760291 1.75789 1.536076 1.669236 1.66268 1.690049 1.716241 1.644476 1.741303 1.799582 2.469999 6.725661 7.870138 5.583104 1.491896 1.347309 1.353918 1.415969 1.242481 1.235525 1.08098 1.313164 1.22 1.35415 1.384452 1.414768 1.392441 1.406289 1.418106 1.429924 1.441742 1.479916 1.37081 1.488431 1.562315 1.50998 1.281374 1.35795 1.40112 1.347222 1.197768 1.411139 1.19114 1.18025 1.312985 1.136645 1.267605 1.331712 1.47361 1.281002 1.500306 1.412881 1.277381 1.126226 1.64592 1.839894 1.988446 2.136193 2.204251 1.986412 1.992077 1.958468 1.984858 2.681642 2.751787 2.861756 2.8336 2.851394 2.826759 2.825338 2.802836 2.798808 2.770576 2.664759 2.459101 2.56355 2.406553 2.6276 2.629109 2.734334 2.743158 2.697644 2.577482 2.470977 2.504894 2.599333 2.53853 2.564666 2.579646 2.579623 2.585612 2.459774 2.287557 2.114112 2.26932 2.016252 1.630481 1.703527 1.636836 1.551979 1.560023 1.301295 2.032833 2.123981 1.92932 1.822636 2.10789 2.109913 2.438242 0.2365079 -0.4 -0.4 -0.4 -0.4 -0.4 -0.4 -0.4 -0.4 -0.4 -0.4 -0.4 -0.4 -0.4 -0.4 -0.4 -0.4 -0.4 -0.4 -0.4 -0.4 -0.4 -0.4 -0.4 -0.4 -0.4 -0.4 -0.4 -0.4 -0.4 -0.4 -0.4 -0.4 -0.4 -0.4 -0.4 -0.4 -0.4 -0.4 -0.4 -0.4 -0.4 -0.4 -0.4 -0.4 -0.4 -0.4 -0.4 -0.4 -0.4 -0.4 -0.4 -0.4 -0.4 -0.4 -0.4 -0.4 -0.4 -0.4 -0.4 -0.4 -0.4 -0.4 -0.4 -0.4 -0.4 -0.4 -0.4 2.861032 2.879444 -0.4 -0.4 -0.4 -0.4 -0.4 -0.4 -0.4 -0.4 -0.4 -0.4 -0.4 -0.4 -0.4 -0.4 -0.4 -0.4 -0.4 -0.4 -0.4 -0.4 -0.4 -0.4 -0.4 -0.4 -0.4 -0.4 -0.4 -0.4 -0.4 -0.4 -0.4 -0.4 -0.4 -0.4 -0.4 -0.4 -0.4 -0.4 -0.4 -0.4 0.1841893 1.342243 -0.4 -0.2039954 1.817782 1.744138 1.725005 8.80685 14.71657 16.36707 20.27426 20.11632 21.0237 20.70586 22.45148 23.66746 22.92441 19.87178 18.23214 16.09163 13.66302 10.77963 7.458902 4.962669 2.535103 2.012837 2.09984 1.680204 1.581077 1.427923 1.748206 1.74423 1.949186 2.045584 3.288297 6.557242 6.705301 7.183705 11.29479 12.81684 14.63675 16.14716 17.73383 17.97081 17.52934 19.19688 19.72923 20.9591 22.61359 23.37744 24.84862 28.00159 28.94831 31.31935 33.0639 33.05674 32.03011 33.25732 36.91186 37.24196 37.05518 33.47928 37.57461 38.4139 40.91862 41.93605 44.08453 43.83162 44.88272 46.33983 48.04746 49.40002 49.26587 49.13689 50.79499 52.0498 53.05551 53.91832 54.49324 55.044 55.95844 61.05509 63.17941 65.57581 67.5582 69.79854 71.08167 73.88979 74.79578 76.69447 80.56396 82.31996 85.27303 87.58945 89.4277 91.5358 92.42966 93.34025 94.06142 95.31855 96.23094 96.90027 97.26187 97.08605 96.79494 96.04395 95.92515 95.9953 95.33847 94.61074 93.63806 92.77877 91.86275 91.32803 89.92066 89.05891 88.13895 86.39105 86.2334
35.29372 34.08325 32.74539 31.56734 30.3365 27.88357 27.70625 27.47838 25.0239 25.22575 23.72301 21.56853 19.667 17.6308 13.6414 12.84152 10.9307 10.1944 9.853978 9.209457 9.341015 9.203407 9.369081 9.807923 6.868868 2.776028 1.7814 1.775832 1.988067 2.048438 2.008786 1.795431 1.670881 1.571202 1.618254 1.52585 1.762478 1.765833 1.685287 1.628703 1.582468 1.659268 1.51641 1.374323 1.38532 1.609953 1.702558 5.042799 7.692544 6.459213 0.8837247 1.385841 1.215606 1.339632 1.363979 1.162941 1.197761 1.229595 1.280431 1.406655 1.410222 1.372372 1.338756 1.384083 1.382 1.398088 1.409906 1.421724 1.446939 1.384874 1.398742 1.51211 1.290186 1.125329 1.292113 1.453778 1.424851 1.197994 1.36843 1.129084 1.187667 1.42288 1.229977 1.148771 1.216634 1.431047 1.404481 1.40142 1.370794 1.328307 1.247725 1.170052 1.704396 1.80959 1.608965 1.847009 1.845711 1.838809 1.844121 1.952142 2.249636 2.748478 3.012195 2.929276 2.904641 2.899045 2.898041 2.885646 2.838637 2.815926 2.780272 2.594561 2.508256 2.537808 2.484715 2.519475 2.784785 2.638937 2.496722 2.466269 2.383907 2.716508 2.546773 2.605352 2.554461 2.638818 2.541007 2.424958 2.353581 2.222574 2.228261 1.744211 1.664019 1.789641 1.699587 1.68564 1.608429 1.37236 1.938136 2.160196 2.329752 2.145304 1.968035 1.90099 2.177512 2.180383 2.528194 0.7280145 -0.4 -0.4 -0.4 -0.4 -0.4 -0.4 -0.4 -0.4 -0.4 -0.4 -0.4 -0.4 -0.4 -0.4 -0.4 -0.4 -0.4 -0.4 -0.4 -0.4 -0.4 -0.4 -0.4 -0.4 -0.4 -0.4 -0.4 -0.4 -0.4 -0.4 -0.4 -0.4 -0.4 -0.4 -0.4 -0.4 -0.4 -0.4 -0.4 -0.4 -0.4 -0.4 -0.4 -0.4 -0.4 -0.4 -0.4 -0.4 -0.4 -0.4 -0.4 -0.4 -0.4 -0.4 -0.4 -0.4 -0.4 -0.4 -0.4 -0.4 -0.4 -0.4 -0.4 -0.4 -0.4 2.976473 3.001059 -0.1366595 -0.4 -0.4 -0.4 -0.4 -0.4 -0.4 -0.4 -0.4 -0.4 -0.4 -0.4 -0.4 -0.4 -0.4 -0.4 -0.4 -0.4 -0.4 -0.4 -0.4 -0.4 -0.4 -0.4 -0.4 -0.4 -0.4 -0.4 -0.4 -0.4 -0.4 -0.4 -0.4 -0.4 -0.4 -0.4 -0.4 -0.4 -0.4 -0.4 0.4044836 1.52351 0.04314813 -0.4 -0.4 -0.4 1.919971 1.709899 1.712002 2.573701 9.369512 11.22318 12.07212 14.45295 15.32459 16.96421 18.28986 17.27965 15.86374 13.77706 11.43432 8.656868 6.209542 3.176145 1.452768 1.079725 0.6 1.572493 1.372369 1.481451 1.649667 1.66183 1.85746 2.050325 3.069745 6.474205 6.764502 6.885959 10.91752 13.67816 16.63248 17.68519 19.0996 20.52887 20.17896 20.60803 21.12874 21.76863 22.2176 23.5406 24.90748 26.92261 28.65051 30.76678 32.73027 34.47481 34.10155 33.04915 37.99192 39.30273 39.55778 39.36684 36.70688 36.456 41.39489 42.18834 44.84019 46.26594 46.86234 47.51853 48.36452 49.4296 50.12775 52.00678 53.29842 54.93607 54.80036 54.94784 54.18586 54.44787 58.49902 61.2918 63.21136 66.88947 67.15899 68.65569 70.94564 73.26031 74.66277 76.16625 77.96487 80.49219 80.72208 85.13743 87.62394 87.72736 90.82625 92.12141 92.70478 93.7765 95.09281 95.45718 95.72958 96.33575 95.76916 95.59106 95.32118 95.16782 94.63806 94.08009 93.0059 92.36117 91.37161 91.00723 89.20811 87.96888 87.74503 86.75771 85.38039 84.41407
34.78752 34.03648 33.15575 32.27217 30.92155 29.65917 29.40334 28.23583 25.77465 26.00303 24.36458 24.22844 21.53971 20.16378 17.15991 16.55347 13.0123 13.24499 11.00165 9.943981 9.384119 9.764902 10.06255 10.31462 6.864319 2.803684 1.770718 1.866835 1.511919 1.844544 1.935887 1.722627 1.756301 1.634523 1.586743 1.721757 1.663146 1.818375 1.648536 1.59313 1.623891 1.483646 1.329337 1.25297 1.326615 1.61348 4.431267 7.472948 7.226237 2.258933 1.332866 0.412622 1.348395 1.382722 1.353134 1.233388 1.329478 1.350964 1.34039 1.354463 1.350154 1.346047 1.340545 1.319935 1.366508 1.378071 1.389888 1.401706 1.441846 1.430495 1.315844 1.067255 1.147603 1.219671 0.9319928 1.162195 1.436725 1.233979 1.170871 1.275757 1.295493 1.311672 1.3648 1.14891 1.202433 1.172451 1.272766 1.320209 1.452393 1.440765 1.250221 1.227982 1.340202 1.400304 1.481126 1.664371 1.686506 1.696543 1.835918 2.036322 2.04117 2.294151 2.850778 2.982604 2.972751 2.971748 2.973013 2.914685 2.885769 2.853798 2.716878 2.669495 2.488352 2.647752 2.403286 2.536271 2.535732 2.49189 2.412614 2.352655 2.463316 2.433644 2.555287 2.668471 2.61383 2.459632 2.394638 2.401119 2.344181 2.389047 1.991506 2.16481 1.913631 1.635429 1.733365 1.598083 1.604701 1.921585 2.198469 2.332404 2.377562 2.419283 2.280349 2.168398 1.772969 2.167978 2.267194 2.430391 2.01728 -0.4 -0.4 -0.4 -0.4 -0.4 -0.4 -0.4 -0.4 -0.4 -0.4 -0.4 -0.4 -0.4 -0.4 -0.4 -0.4 -0.4 -0.4 -0.4 -0.4 -0.4 -0.4 -0.4 -0.4 -0.4 -0.4 -0.4 -0.4 -0.4 -0.4 -0.4 -0.4 -0.4 -0.4 -0.4 -0.4 -0.4 -0.4 -0.4 -0.4 -0.4 -0.4 -0.4 -0.4 -0.4 -0.4 -0.4 -0.4 -0.4 -0.4 -0.4 -0.4 -0.4 -0.4 -0.4 -0.4 -0.4 -0.4 -0.4 -0.4 -0.4 -0.4 -0.4 -0.4 3.088241 2.47312 -0.4 -0.4 -0.4 -0.4 -0.4 -0.4 -0.4 -0.4 -0.4 -0.4 -0.4 -0.4 -0.4 -0.4 -0.4 -0.4 -0.4 -0.4 -0.4 -0.4 -0.4 -0.4 -0.4 -0.4 -0.4 -0.4 -0.4 -0.4 -0.4 -0.4 -0.4 -0.4 -0.4 -0.4 -0.4 -0.4 -0.4 -0.4 -0.4 -0.3666328 0.7856886 -0.03709593 -0.4 -0.4 -0.4 -0.4 -0.4 -0.4 1.866856 1.794834 1.898709 3.016656 5.07472 8.763705 8.222207 10.11901 10.96261 10.82563 9.382178 8.769573 6.281663 3.186021 1.875185 0.4 0.6833521 2.179792 1.340038 1.47423 1.452839 1.366596 1.621819 1.782597 1.892681 2.552361 6.776574 6.793592 6.949276 11.27237 14.50045 16.46097 19.15054 20.63148 22.3094 23.55859 23.09269 24.06527 23.84497 23.72809 23.60061 24.66445 26.19176 28.2743 29.65709 31.47365 33.4857 35.90424 35.29283 37.54166 41.16249 40.63279 41.59912 41.79875 40.11374 36.49509 41.69106 43.99131 45.66238 47.4411 48.37471 49.22212 50.6313 51.91412 52.21324 54.18268 54.15685 55.77232 57.27892 58.6946 58.59764 59.03631 60.77762 63.40435 65.9177 67.97159 67.672 71.31102 73.1516 73.23243 76.64362 77.36362 78.59069 80.8761 82.02943 84.75321 87.46721 87.91842 90.77768 91.36919 92.45356 93.49625 93.77702 93.94581 93.84802 93.99899 94.9249 94.72677 94.35523 93.87608 93.21069 92.21825 91.33183 90.55711 89.67647 89.10244 88.26491 87.71268 85.76481 84.47481 82.59238 82.64376
34.14666 33.67152 33.10254 32.26584 31.12986 30.69215 29.79528 29.13127 26.5354 26.77476 26.5531 24.55675 24.37369 23.74935 20.1149 18.62543 17.48468 14.41281 11.47084 9.663496 9.965255 10.35086 10.64158 8.654459 4.04847 1.834249 1.899885 1.661739 1.934795 1.639339 1.769285 1.769066 1.618142 1.68427 1.53457 1.629407 1.690085 1.739413 1.762257 1.557597 1.49297 1.26 1.286069 1.176714 1.250832 4.433704 7.704417 7.41814 5.474738 1.146316 1.354443 0.930974 1.396869 1.476977 1.193106 1.37711 1.363964 1.379145 1.360003 1.332417 1.299499 1.302467 1.337588 1.282614 1.337319 1.356537 1.369871 1.381688 1.438325 1.486398 1.052494 1.291065 1.14811 1.094402 1.309061 1.147339 1.316836 1.451625 1.178031 1.55853 1.45682 1.134982 1.377368 1.355515 1.166531 1.269597 1.039485 1.393807 1.430141 1.453155 1.389191 1.238122 1.167631 1.209811 1.43678 1.490063 1.599002 1.6961 1.848829 1.972215 2.107536 2.157348 2.983958 2.915239 3.010971 2.877134 2.977318 2.884243 2.785753 2.748408 2.710934 2.669342 2.934588 2.632579 2.583963 2.453543 2.604846 2.493682 2.309927 2.431782 2.451321 2.5414 2.599298 2.57956 2.473648 2.472619 2.385206 2.403754 2.404871 2.383955 2.147991 1.858954 1.72 1.84568 1.627447 1.756534 1.961158 2.183021 2.327844 2.363269 2.414486 2.457926 2.44768 2.380405 2.143595 1.787453 1.969133 2.273908 2.141729 2.37871 0.5990012 -0.4 -0.4 -0.4 -0.4 -0.4 -0.4 -0.4 -0.4 -0.4 -0.4 -0.4 -0.4 -0.4 -0.4 -0.4 -0.4 -0.4 -0.4 -0.4 -0.4 -0.4 -0.4 -0.4 -0.4 -0.4 -0.4 -0.4 -0.4 -0.4 -0.4 -0.4 -0.4 -0.4 -0.4 -0.4 -0.4 -0.4 -0.4 -0.4 -0.4 -0.4 -0.4 -0.4 -0.4 -0.4 -0.4 -0.4 -0.4 -0.4 -0.4 -0.4 -0.4 -0.4 -0.4 -0.4 -0.4 -0.4 -0.4 -0.4 -0.4 -0.4 -0.4 -0.4 -0.4 -0.4 -0.4 -0.4 -0.4 -0.4 -0.4 -0.4 -0.4 -0.4 -0.4 -0.4 -0.4 -0.4 -0.4 -0.4 -0.4 -0.4 -0.4 -0.4 -0.4 -0.4 -0.4 -0.4 -0.4 -0.4 -0.4 -0.4 -0.4 -0.4 -0.4 -0.4 -0.4 -0.4 -0.4 -0.4 -0.4 -0.4 -0.4 -0.4 -0.4 -0.4 -0.4 -0.4 -0.4 -0.4 -0.4 -0.4 -0.4 -0.4 -0.4 2.169953 1.891053 2.07119 1.868663 1.847032 4.041449 4.91351 6.026373 5.522553 3.327076 1.209845 0.3 1.469169 1.804644 1.902806 1.402103 1.21495 1.537021 1.452479 1.44857 1.607865 1.801511 1.87751 4.739089 6.236574 8.890848 11.19071 14.60586 15.67362 19.40383 21.76502 23.60575 24.84041 26.84324 27.69265 25.87941 26.54863 25.72619 25.57824 26.06905 27.65898 29.29805 31.10437 32.91611 35.36351 36.90028 36.43979 41.02837 41.94755 43.38504 44.03691 43.65162 43.32935 40.25159 40.73391 45.34514 46.81587 49.66894 49.36071 51.57812 51.83524 53.91105 54.15314 55.76293 56.88806 57.81078 58.51546 59.66999 61.27136 62.85801 63.85718 66.5536 68.25172 67.9227 71.20364 73.79055 74.09592 75.59911 77.48081 77.48823 79.32533 80.03317 82.45837 85.02019 87.42079 88.01101 90.25446 90.89838 92.02992 92.21333 92.69725 92.56194 92.51375 93.33125 93.46772 93.81488 93.44476 92.88364 91.79375 90.37477 90.67627 88.92514 88.34891 88.06374 87.37292 86.47967 84.3309 82.40979 80.7946 79.90329
31.9621 32.95554 32.47449 32.13262 31.04122 30.52861 29.76727 29.19073 27.23553 27.48687 27.8127 24.66467 24.39688 24.66768 24.4045 21.06324 17.36119 13.48608 10.05017 10.29122 10.36508 10.96519 10.01046 5.276008 2.200517 2.063128 1.973408 1.905569 1.861149 1.774018 1.70269 1.678085 1.581402 1.679144 1.570365 1.657267 1.623682 1.659036 1.554783 1.458835 1.31656 1.247244 1.201375 1.238351 3.72591 7.794927 7.5072 4.134786 1.570745 1.16614 1.311444 1.428325 1.308606 1.299952 1.301521 1.375805 1.36786 1.323074 1.383762 1.319465 1.255168 1.242842 1.330658 1.277724 1.228981 1.352147 1.322807 1.352447 1.248578 1.280972 1.233605 0.9965 1.185103 1.376205 1.289818 1.415986 1.124866 1.403352 1.410591 1.321449 1.308714 1.115755 1.184188 1.411236 1.432083 1.099285 1.259506 1.120481 1.44322 1.339156 1.401116 1.379977 1.230533 1.113531 1.255197 1.390543 1.586091 1.661335 1.870573 1.897552 1.940076 1.984275 2.070821 2.905994 2.901804 2.887568 2.708505 2.408075 2.757091 2.610292 2.873185 2.87777 2.778789 2.593348 2.607515 2.68952 2.356369 2.410768 2.398347 2.450263 2.516317 2.608579 2.658338 2.649839 2.642056 2.225369 2.426653 2.374928 2.361861 2.417494 1.980256 1.771083 1.895889 1.694336 1.861735 2.074691 2.27582 2.407195 2.453179 2.444494 2.435809 2.427124 2.418439 2.35833 2.322298 2.152871 1.815345 1.703858 2.189281 2.110039 2.190963 2.433194 0.1290057 -0.4 -0.4 -0.4 -0.4 -0.4 -0.4 -0.4 -0.4 -0.4 -0.4 -0.4 -0.4 -0.4 -0.4 -0.4 -0.4 -0.4 -0.4 -0.4 -0.4 -0.4 -0.4 -0.4 -0.4 -0.4 -0.4 -0.4 -0.4 -0.4 -0.4 -0.4 -0.4 -0.4 -0.4 -0.4 -0.4 -0.4 -0.4 -0.4 -0.4 -0.4 -0.4 -0.4 -0.4 -0.4 -0.4 -0.4 -0.4 -0.4 -0.4 -0.4 -0.4 -0.4 -0.4 -0.4 -0.4 -0.4 -0.4 -0.4 -0.4 -0.4 -0.4 -0.4 -0.4 -0.4 -0.4 -0.4 -0.4 -0.4 -0.4 -0.4 -0.4 -0.4 -0.4 -0.4 -0.4 -0.4 -0.4 -0.4 -0.4 -0.4 -0.4 -0.4 -0.4 -0.4 -0.4 -0.4 -0.4 -0.4 -0.4 -0.4 -0.4 -0.4 -0.4 -0.4 -0.4 -0.4 -0.4 -0.4 -0.4 -0.4 -0.4 -0.4 -0.4 -0.4 -0.4 -0.4 -0.4 -0.4 -0.4 -0.4 -0.4 -0.4 -0.4 1.884217 1.831977 1.88 1.699014 2.617758 3.695339 1.807923 0.3 1.616954 1.394585 1.36921 1.902342 1.535063 1.386079 1.285059 1.320821 1.311672 1.593405 1.767277 1.947478 2.877143 5.377312 8.10049 13.06337 15.52686 16.7521 19.541 21.50703 23.74018 26.05841 27.01757 28.66335 28.99811 28.27589 29.48441 29.15279 28.13468 28.11147 29.48228 31.53004 33.30064 34.69103 37.9695 38.03175 39.69823 42.13564 43.10126 44.45715 45.87075 45.88243 45.847 43.96711 40.81693 46.00989 48.3878 50.12084 51.79472 53.23318 54.80969 55.7538 56.26484 58.15047 58.26442 59.19075 59.73166 60.88472 62.10237 63.90361 65.32913 67.68325 68.00629 70.5993 73.23283 73.94942 74.12404 76.95206 78.01452 79.27941 81.66769 82.09761 82.38868 85.14146 87.11557 89.01868 89.58012 91.16485 91.61174 92.05583 92.10538 91.96479 92.20345 92.26492 92.77566 92.9645 92.82435 92.07276 90.69917 89.58005 88.66191 87.76308 87.36032 85.34111 84.68578 83.61244 82.23027 80.64051 79.31483 77.76259
30.70164 31.68974 31.65946 31.18992 30.88541 29.99908 29.86941 29.1782 27.78695 28.10738 28.55609 28.4441 27.19704 25.14491 21.53371 17.44321 13.67892 10.32958 10.51093 10.71415 11.20548 10.66557 6.297947 2.678643 2.338366 2.267742 2.155898 1.984376 1.863933 1.976817 1.659594 1.69926 1.667126 1.541281 1.699765 1.715649 1.729671 1.517719 1.303488 1.454585 1.485845 1.329073 1.226974 3.360351 7.616571 7.496996 4.361928 1.345813 1.442696 1.304911 1.335609 1.30323 1.420789 1.292211 1.408846 1.198521 1.262178 1.315547 1.37081 1.306513 1.242216 1.18871 1.267752 1.278843 1.22653 1.206493 1.348711 1.261303 1.376253 1.19214 1.157045 1.280777 1.319979 1.463371 1.429741 1.559026 1.43635 1.246743 1.521166 1.373718 1.410468 1.16697 1.357871 1.385257 1.404933 1.307288 0.9540011 1.277163 1.200713 1.373222 1.439885 1.466147 1.377064 1.184656 1.135984 1.227492 1.425861 1.556229 1.682184 1.722051 1.804502 1.980186 2.089436 2.052074 2.739808 2.493905 2.337172 2.59926 2.521897 2.746472 2.925878 2.842485 2.760754 2.6006 2.410833 2.50739 2.672907 2.42349 2.498469 2.570079 2.588985 2.66626 2.69016 2.713713 2.711561 2.493055 2.374724 2.329181 2.320694 1.912567 1.819613 1.927865 1.666342 1.936325 2.125416 2.402513 2.463189 2.471817 2.46888 2.460196 2.451511 2.442826 2.373795 2.342274 2.255137 2.081552 2.087887 1.82227 1.623798 1.743624 2.088232 1.878366 2.080443 2.120613 0.6924017 -0.4 -0.4 -0.4 -0.4 -0.4 -0.4 -0.4 -0.4 -0.4 -0.4 -0.4 -0.4 -0.4 -0.4 -0.4 -0.4 -0.4 -0.4 -0.4 -0.4 -0.4 -0.4 -0.4 -0.4 -0.4 -0.4 -0.4 -0.4 -0.4 -0.4 -0.4 -0.4 -0.4 -0.4 -0.4 -0.4 -0.4 -0.4 -0.4 -0.4 -0.4 -0.4 -0.4 -0.4 -0.4 -0.4 -0.4 -0.4 -0.4 -0.4 -0.4 -0.4 -0.4 -0.4 -0.4 0.6293665 3.053356 1.213178 -0.4 -0.4 -0.4 -0.4 -0.4 -0.4 -0.4 -0.4 -0.4 -0.4 -0.4 -0.4 -0.4 -0.4 -0.4 -0.4 -0.4 -0.4 -0.4 -0.4 -0.4 -0.4 -0.4 -0.4 -0.4 -0.4 -0.4 -0.4 -0.4 -0.4 -0.4 -0.4 -0.4 -0.4 -0.4 -0.4 -0.4 -0.4 -0.4 -0.4 -0.4 -0.4 -0.4 -0.4 -0.4 -0.4 -0.4 -0.4 -0.4 -0.4 -0.4 -0.4 -0.4 -0.4 -0.4 -0.3 1.586129 1.73852 1.760464 1.995505 0.1 1.326262 1.70265 1.408136 1.802942 1.703387 1.571291 1.407207 1.5251 1.299461 1.312515 1.542142 1.874872 2.487411 4.148826 10.69703 13.619 14.63746 17.03329 19.41751 22.16898 25.1739 26.57963 28.18372 29.12533 30.28662 31.41384 32.47524 32.77664 31.69269 31.91836 30.55622 31.96719 33.74412 35.52182 38.75919 39.12733 39.46841 41.42999 42.02685 44.16479 45.38219 47.5878 47.62077 47.31631 47.10753 43.74183 45.71316 49.16937 50.74974 52.47918 53.89819 55.3522 57.10148 59.39558 59.67403 59.54665 59.59545 60.11609 62.09403 63.36646 65.28373 66.38018 68.00275 69.40614 71.86192 73.55418 73.88564 76.45371 76.67458 79.31918 80.76114 81.79018 82.21386 82.64555 85.9229 87.75957 88.44267 90.70158 91.31309 91.6748 91.78329 91.86201 91.93824 91.89019 92.08938 92.21273 92.10732 91.83989 89.43188 88.30971 86.76875 85.87622 84.61295 83.98195 83.14057 82.15007 80.83948 80.48759 79.16575 76.69588 74.55378
28.99444 30.12505 31.22648 30.53757 30.17924 30.07479 29.74292 28.55757 28.51906 28.68273 29.11658 29.04303 25.33323 21.42597 17.09766 13.19849 10.48497 10.8515 10.99809 11.46494 10.85183 5.83484 2.89012 2.451071 2.329428 2.249511 2.141189 2.211982 2.033794 1.812237 1.933274 1.718693 1.82594 1.480213 1.724814 1.584741 1.44044 1.494044 1.662388 1.560707 1.546192 1.486078 4.135338 7.591992 7.450334 4.143333 1.330083 1.175855 1.427271 1.347593 1.319654 1.36731 1.40188 1.350072 1.161604 1.342963 1.200896 1.377678 1.357857 1.29356 1.229263 1.164966 1.135958 1.268979 1.217826 1.09722 1.306197 1.384256 1.228675 2.300125 1.259543 1.31321 1.39745 1.450643 1.64066 1.681429 1.626783 1.306304 1.468742 1.52662 1.323129 1.385143 1.414246 1.404071 1.343825 1.309712 1.207531 1.019358 1.254348 1.230023 1.468002 1.454019 1.357334 1.353539 1.170255 1.272961 1.215689 1.452818 1.45878 1.625398 1.795713 1.976096 2.100432 2.095705 2.16 2.191587 2.334485 2.499116 2.509867 2.571242 2.635628 2.579366 2.535277 2.639137 2.49844 2.433425 2.476887 2.707217 2.446194 2.574325 2.565212 2.675295 2.661124 2.658972 2.656819 2.475621 2.461879 2.24379 1.930915 1.951118 1.94541 1.718912 2.141997 2.23832 2.451531 2.51739 2.493332 2.496616 2.484582 2.475897 2.467212 2.390735 2.407032 2.336878 2.373425 2.157422 2.081955 2.258969 2.03 1.77593 1.598418 1.767529 2.053782 1.899602 1.882393 2.362683 1.517368 -0.03763132 -0.4 -0.4 -0.4 -0.4 -0.4 -0.4 -0.4 -0.4 -0.4 -0.4 -0.4 -0.4 -0.4 -0.4 -0.4 -0.4 -0.4 -0.4 -0.4 -0.4 -0.4 -0.4 -0.4 -0.4 -0.4 -0.4 -0.4 -0.4 -0.4 -0.4 -0.4 -0.4 -0.4 -0.4 -0.4 -0.4 -0.4 -0.4 -0.4 -0.4 -0.4 -0.4 -0.4 -0.4 -0.4 -0.4 -0.4 -0.4 -0.4 -0.4 -0.4 -0.4 2.924406 2.962749 -0.4 -0.4 -0.4 -0.4 -0.4 -0.4 -0.4 -0.4 -0.4 -0.4 -0.4 -0.4 -0.4 -0.4 -0.4 -0.4 -0.4 -0.4 -0.4 -0.4 -0.4 -0.4 -0.4 -0.4 -0.4 -0.4 -0.4 -0.4 -0.4 -0.4 -0.4 -0.4 -0.4 -0.4 -0.4 -0.4 -0.4 -0.4 -0.4 -0.4 -0.4 -0.4 -0.4 -0.4 -0.4 -0.4 -0.4 -0.4 -0.4 -0.4 -0.4 -0.4 -0.4 -0.4 -0.4 -0.386846 -0.3 -0.1272662 1.686175 1.785573 1.871942 0.8476672 1.921538 1.993756 1.935586 1.669617 1.485588 1.362054 1.469335 1.510953 1.52939 1.50582 1.752744 1.842656 3.335416 6.521739 11.44514 16.57585 16.25356 19.97325 22.89977 25.05356 28.49382 29.47571 29.76468 30.41382 32.40858 33.56569 33.81055 34.99739 35.49032 34.38718 33.66705 34.1816 34.96881 39.65292 39.85379 39.87053 41.29212 41.92144 43.75787 45.10405 46.60061 48.54388 49.36693 49.52374 49.10394 46.87452 45.90789 49.46083 51.95406 52.91992 54.72808 56.13739 56.66462 59.03772 59.81 59.79956 60.62457 62.50786 63.13676 64.28778 65.9311 67.65125 68.80547 70.17277 71.29637 72.35636 75.10072 75.94411 77.15958 79.57656 81.32895 82.1446 82.3388 85.22221 86.82986 87.33876 88.60546 89.85753 90.94437 91.56253 91.49321 91.59014 91.73988 91.86485 91.73104 91.26563 91.27284 90.10671 87.59655 86.39452 85.84159 83.86732 81.50834 81.20756 80.86357 79.94033 79.35306 78.07311 76.69017 74.26112 71.88505
27.81573 28.30719 29.59421 29.96254 29.01551 28.66576 28.57772 28.70021 28.84544 29.8963 27.77872 24.13456 20.35991 16.35327 12.48927 10.8009 11.13234 11.32379 11.82881 10.37412 3.759847 2.742404 2.763542 2.695061 2.443933 2.32446 2.253695 2.214639 2.146689 1.966466 1.898218 1.930209 1.81714 1.695235 1.602698 1.441922 1.522452 1.664786 1.595475 1.622676 1.613124 5.183109 7.522399 7.551254 3.292176 1.646536 1.351596 1.41149 1.257349 1.368367 1.346652 1.390365 1.217699 1.206105 1.272707 1.320156 1.336687 1.145016 1.36989 1.309024 1.229216 1.152014 1.119367 1.133516 1.163627 1.331417 1.195027 1.267642 2.309132 2.41341 2.221452 1.328261 1.380577 1.640443 1.657749 1.661378 1.626826 1.496495 1.372479 1.736752 1.415765 1.405049 1.402987 1.374784 1.355918 1.302394 1.199132 1.231537 1.171874 1.272511 1.283378 1.462016 1.426269 1.399719 1.403425 1.177263 1.128398 1.196171 1.285335 1.547457 1.778843 1.990123 2.018208 2.043758 2.095371 2.18681 2.225984 2.202811 2.133933 2.3293 2.343953 2.371126 2.458191 2.552053 2.664112 2.411509 2.48223 2.632572 2.671101 2.51229 2.563734 2.641439 2.635654 2.607914 2.58029 2.492895 2.327144 1.888048 2.009951 1.945862 1.919146 2.170061 2.330141 2.454622 2.524605 2.552611 2.534237 2.508969 2.500284 2.491599 2.407675 2.438297 2.35902 2.395567 2.216898 2.39157 2.425321 2.230012 2.172511 2.22 1.901787 1.656952 1.672423 1.674842 2.005813 1.995111 1.813452 2.185834 2.017516 0.5817341 -0.4 -0.4 -0.4 -0.4 -0.4 -0.4 -0.4 -0.4 -0.4 -0.4 -0.4 -0.4 -0.4 -0.4 -0.4 -0.4 -0.4 -0.4 -0.4 -0.4 -0.4 -0.4 -0.4 -0.4 -0.4 -0.4 -0.4 -0.4 -0.4 -0.4 -0.4 -0.4 -0.4 -0.4 -0.4 -0.4 -0.4 -0.4 -0.4 -0.4 -0.4 -0.4 -0.4 -0.4 -0.4 -0.4 -0.4 -0.4 -0.4 0.941915 2.922191 1.496722 -0.4 -0.4 -0.4 -0.4 -0.4 -0.4 -0.4 -0.4 -0.4 -0.4 -0.4 -0.4 -0.4 -0.4 -0.4 -0.4 -0.4 -0.4 -0.4 -0.4 -0.4 -0.4 -0.4 -0.4 -0.4 -0.4 -0.4 -0.4 -0.4 -0.4 -0.4 -0.4 -0.4 -0.4 -0.4 -0.4 -0.4 -0.4 -0.4 -0.4 -0.4 -0.4 -0.4 -0.4 -0.4 -0.4 -0.4 -0.4 -0.4 -0.4 -0.4 -0.4 -0.4 -0.4 -0.4 -0.3438181 -0.2966647 -0.1297293 0.2810472 0.1 1.678303 1.677241 1.771306 1.851857 1.820482 1.626414 1.611873 1.482746 1.37015 1.596474 1.566075 1.61537 1.733885 2.7464 4.867763 8.656435 13.7711 16.56573 19.76763 22.74366 24.8424 27.51972 29.16644 29.55997 29.78705 32.57177 33.16221 33.97245 35.70953 36.97146 36.88612 36.64607 35.70974 38.13815 39.9413 40.27368 40.22778 41.12932 42.29124 43.0786 45.024 46.49164 47.60221 50.53015 51.6165 51.24294 50.49208 50.52147 48.57315 48.45637 50.5717 52.9605 54.9123 56.1689 57.08812 57.84004 58.88837 59.93943 61.57895 62.44387 64.10169 65.48456 66.80677 68.08348 69.57523 70.5783 72.10781 73.09767 74.81162 75.64048 78.14412 80.02101 82.17328 82.33158 82.41757 85.53943 86.34593 86.86311 87.88739 88.397 89.52923 91.16533 91.38338 91.27454 91.34634 91.4872 91.17201 90.54904 90.6623 89.22153 86.73711 85.77531 84.65546 81.1356 79.35468 79.02474 78.49691 77.48075 76.63541 75.94462 73.74212 71.45081 69.37842
26.87416 26.89452 28.21797 29.25477 28.46112 28.06142 28.53889 28.80479 27.99377 24.79875 21.99732 18.77769 14.83672 11.19366 11.18141 11.47264 11.80559 12.08552 12.95934 8.42199 2.915586 2.915193 2.8401 2.728833 2.437853 2.415027 2.451051 2.376013 2.198123 2.018758 1.816172 1.953743 1.772686 1.598497 1.807281 1.681663 1.819503 1.808383 1.736287 3.98777 7.560344 7.71667 6.763515 2.191808 1.335427 1.254191 1.337011 1.281402 1.361677 1.364757 1.311039 1.189673 1.374034 1.274893 1.389544 1.221226 1.229233 1.108329 1.312425 1.368712 1.233857 1.16275 0.8764727 1.237899 1.259542 1.289187 1.311316 1.400091 1.804769 2.312333 1.94268 1.63986 1.497657 1.56957 1.587131 1.595852 1.738657 1.609985 1.377913 1.483118 1.490327 1.118197 1.460504 1.29923 1.321699 1.320945 1.428068 1.406846 1.186934 1.225545 1.199218 1.355224 1.333926 1.255293 1.337102 1.279462 1.116696 1.065353 1.165666 1.358803 1.566906 1.896394 1.836892 1.970242 1.985326 2.236117 2.329187 2.056082 1.936815 2.083326 2.18479 2.254603 2.348719 2.470327 2.641688 2.62018 2.473324 2.465953 2.671392 2.656602 2.465264 2.589653 2.708289 2.652785 2.507051 2.427263 2.054898 2.068394 1.962044 1.953783 2.235682 2.366483 2.603311 2.772246 2.459293 2.479918 2.56828 2.524671 2.515985 2.453413 2.470653 2.392064 2.391084 2.285558 2.438654 2.444793 2.462529 2.479797 2.273676 2.131692 2.021804 1.933099 1.732382 1.710202 1.565581 1.685661 1.934126 1.990625 1.923694 2.081202 2.253488 1.187999 -0.1913966 -0.4 -0.4 -0.4 -0.4 -0.4 -0.4 -0.4 -0.4 -0.4 -0.4 -0.4 -0.4 -0.4 -0.4 -0.4 -0.4 -0.4 -0.4 -0.4 -0.4 -0.4 -0.4 -0.4 -0.4 -0.4 -0.4 -0.4 -0.4 -0.4 -0.4 -0.4 -0.4 -0.4 -0.4 -0.4 -0.4 -0.4 -0.4 -0.4 -0.4 -0.4 -0.4 -0.4 -0.4 -0.4 -0.4 2.704313 2.854297 -0.4 -0.4 -0.4 -0.4 -0.4 -0.4 -0.4 -0.4 -0.4 -0.4 -0.4 -0.4 -0.4 -0.4 -0.4 -0.4 -0.4 -0.4 -0.4 -0.4 -0.4 -0.4 -0.4 -0.4 -0.4 -0.4 -0.4 -0.4 -0.4 -0.4 -0.4 -0.4 -0.4 -0.4 -0.4 -0.4 -0.4 -0.4 -0.4 -0.4 -0.4 -0.4 -0.4 -0.4 -0.4 -0.4 -0.4 -0.4 -0.4 -0.4 -0.4 -0.4 -0.4 -0.4 -0.4 -0.4 -0.3204406 -0.285263 0.2589853 1.210665 1.565207 1.687324 1.530272 1.518929 1.623333 1.660328 1.584289 1.512164 1.638211 1.675804 1.549011 1.548952 1.708796 2.214216 3.206048 5.592379 10.72441 15.29692 18.75345 22.01161 24.30025 25.8207 28.51857 29.32548 29.8312 31.29332 33.756 35.19273 35.8232 37.487 38.24853 38.94011 39.23991 39.46788 40.03992 40.24943 40.61013 40.85169 41.78635 43.72188 44.38696 46.48468 47.51738 49.51106 52.00865 52.75534 52.91715 52.53174 51.92041 52.65747 51.16079 50.34153 50.45148 53.38198 55.99811 56.7034 57.10838 58.59098 59.5229 61.1391 62.71085 65.27164 65.76219 66.86612 68.37791 69.59655 70.73671 71.89055 72.92318 74.9314 76.1833 77.86229 80.44617 82.14121 82.41345 83.65361 85.24397 85.7141 86.35041 86.78123 86.88783 87.87482 88.22124 90.33679 91.01838 91.16235 91.22074 90.79222 89.52422 90.12256 89.09459 86.97038 85.91702 82.9006 79.12449 76.33635 76.03721 75.63171 75.45538 74.62281 72.51854 70.5778 68.55707 66.12365
25.94698 26.16342 26.01501 26.53884 27.21253 27.85283 28.51606 25.19971 22.2722 19.386 16.32631 12.28386 11.31225 11.55966 11.66502 12.11307 12.41672 12.25273 14.12665 9.02511 2.926185 2.953177 2.899664 2.930081 2.735505 2.499602 2.441897 2.462234 2.26053 2.029929 1.920375 1.721048 1.953731 1.868345 1.796228 1.803664 1.848826 1.956443 6.68716 7.461268 7.845299 5.250411 1.552566 1.329389 1.271648 1.369184 1.353792 1.303885 1.330381 1.23841 1.262899 1.305652 1.408837 1.31 1.233899 1.254733 1.159008 1.414741 1.246327 1.418075 1.176687 1.170135 1.290495 1.077987 1.485691 2.060678 2.273049 1.753309 2.041961 2.021361 1.952684 1.775877 1.675788 1.647416 1.825 1.780319 1.721403 1.580606 1.446416 1.390361 1.608929 1.192431 1.40916 1.355071 1.342578 1.372266 1.360319 1.331276 1.439197 1.360344 1.218409 1.192353 1.408588 1.338323 1.337636 1.303547 1.243074 1.104299 1.161878 1.301205 1.482727 1.430441 1.771153 1.804899 2.152021 2.22361 2.242301 2.072878 1.884028 1.875098 2.023305 2.144913 2.266521 2.412972 2.527045 2.483028 2.527143 2.419925 2.768705 2.717946 2.639579 2.527576 2.617432 2.593439 2.391966 2.130562 2.199058 2.003811 2.395239 2.345059 2.475481 2.550655 2.812671 2.735881 2.721099 2.48741 2.479244 2.540372 2.503805 2.505267 2.426678 2.360991 2.332614 2.441413 2.444 2.461736 2.466799 2.44725 2.414917 2.388613 2.181321 1.827351 1.755717 1.759503 1.934796 1.71354 1.541253 1.796974 2.051191 2.027131 1.988737 1.887192 2.228694 1.834786 0.4414662 -0.4 -0.4 -0.4 -0.4 -0.4 -0.4 -0.4 -0.4 -0.4 -0.4 -0.4 -0.4 -0.4 -0.4 -0.4 -0.4 -0.4 -0.4 -0.4 -0.4 -0.4 -0.4 -0.4 -0.4 -0.4 -0.4 -0.4 -0.4 -0.4 -0.4 -0.4 -0.4 -0.4 -0.4 -0.4 -0.4 -0.4 -0.4 -0.4 -0.4 -0.4 -0.4 -0.4 2.217822 2.746496 -0.4 -0.4 -0.4 -0.4 -0.4 -0.4 -0.4 -0.4 -0.4 -0.4 -0.4 -0.4 -0.4 -0.4 -0.4 -0.4 -0.4 -0.4 -0.4 -0.4 -0.4 -0.4 -0.4 -0.4 -0.4 -0.4 -0.4 -0.4 -0.4 -0.4 -0.4 -0.4 -0.4 -0.4 -0.4 -0.4 -0.4 -0.4 -0.4 -0.4 -0.4 -0.4 -0.4 -0.4 -0.4 -0.4 -0.4 -0.4 -0.4 -0.4 -0.4 -0.4 -0.4 -0.4 -0.4 -0.4 -0.4 0.5006511 2.8494 2.635728 2.310195 2.06 1.725832 1.5898 1.361148 1.462188 1.52625 1.671897 1.507534 1.773987 1.627176 1.595389 1.698402 1.83471 2.561471 3.290921 6.781654 12.0448 17.69014 21.39592 23.94209 25.93829 26.05184 29.30429 29.66492 29.93415 32.59602 34.12122 35.64133 37.47117 37.71156 38.31821 38.74521 39.23801 39.6355 41.71164 41.77491 43.63548 44.91518 42.67056 43.7985 46.1261 47.03329 49.17232 50.8515 52.28374 52.78173 53.86494 53.92267 53.61624 55.07532 54.26564 53.32611 52.73142 52.45226 53.14207 55.21201 56.70324 57.08128 58.33161 60.21401 61.61341 63.51434 65.58747 65.81232 67.68812 69.13287 70.67438 72.07194 73.0491 75.2364 76.68542 77.68208 81.45479 82.32974 82.39592 84.06432 84.54424 85.11678 85.39529 86.03252 86.59879 86.84848 87.18993 87.96189 89.40968 89.32919 89.75536 89.72702 88.95 89.67854 87.21082 85.64371 84.20926 81.23502 77.55461 74.98353 73.07666 72.82536 72.81493 71.81779 69.79355 67.96926 65.60701 62.72652
