ncols 448
nrows 33
xllcorner 1275147.96844
yllcorner 5029527.08955
cellsize 100
NODATA_value -9999
1024.0 1084.0 1106.0 1122.0 1130.0 1174.0 1208.0 1293.0 1335.0 1412.0 1421.0 1447.0 1470.0 1475.0 1461.0 1433.0 1413.0 1431.0 1455.0 1443.0 1478.0 1542.0 1552.0 1570.0 1585.0 1551.0 1459.0 1392.0 1280.0 1243.0 1172.0 1149.0 1105.0 1078.0 1067.0 1054.0 1054.0 1081.0 1167.0 1208.0 1275.0 1306.0 1375.0 1417.0 1511.0 1546.0 1603.0 1635.0 1677.0 1667.0 1587.0 1543.0 1458.0 1423.0 1390.0 1406.0 1386.0 1309.0 1257.0 1206.0 1167.0 1088.0 1045.0 949.0 995.0 1050.0 1078.0 1153.0 1199.0 1301.0 1357.0 1369.0 1330.0 1261.0 1224.0 1211.0 1217.0 1164.0 1202.0 1279.0 1285.0 1193.0 1153.0 1071.0 1041.0 1052.0 1059.0 1105.0 1135.0 1181.0 1178.0 1150.0 1125.0 1090.0 1057.0 1002.0 976.0 906.0 896.0 906.0 923.0 886.0 858.0 823.0 802.0 743.0 714.0 696.0 733.0 800.0 781.0 803.0 818.0 817.0 804.0 831.0 863.0 841.0 803.0 738.0 709.0 755.0 763.0 748.0 736.0 694.0 686.0 669.0 643.0 607.0 594.0 570.0 554.0 528.0 520.0 500.0 492.0 507.0 545.0 561.0 532.0 511.0 476.0 482.0 508.0 513.0 467.0 435.0 413.0 409.0 411.0 413.0 409.0 413.0 429.0 447.0 485.0 503.0 495.0 489.0 499.0 512.0 552.0 574.0 601.0 613.0 645.0 666.0 710.0 767.0 799.0 851.0 871.0 897.0 920.0 967.0 990.0 1027.0 1050.0 1098.0 1126.0 1188.0 1214.0 1248.0 1275.0 1335.0 1340.0 1324.0 1323.0 1318.0 1306.0 1286.0 1280.0 1290.0 1270.0 1238.0 1229.0 1237.0 1260.0 1307.0 1324.0 1330.0 1331.0 1350.0 1360.0 1356.0 1351.0 1326.0 1299.0 1288.0 1268.0 1247.0 1244.0 1235.0 1206.0 1188.0 1207.0 1207.0 1151.0 1138.0 1143.0 1122.0 1091.0 1128.0 1177.0 1182.0 1162.0 1156.0 1168.0 1166.0 1123.0 1107.0 1068.0 1071.0 1097.0 1096.0 1099.0 1093.0 1086.0 1081.0 1081.0 1096.0 1135.0 1174.0 1177.0 1153.0 1144.0 1121.0 1108.0 1086.0 1065.0 992.0 974.0 896.0 891.0 954.0 975.0 1005.0 1017.0 994.0 979.0 967.0 962.0 955.0 966.0 978.0 972.0 963.0 942.0 918.0 908.0 950.0 984.0 1043.0 1074.0 1112.0 1106.0 1087.0 1075.0 1051.0 1043.0 1060.0 1081.0 1081.0 1076.0 1065.0 1030.0 1026.0 1048.0 1045.0 995.0 965.0 945.0 927.0 904.0 928.0 991.0 1011.0 1061.0 1086.0 1094.0 1110.0 1132.0 1122.0 1086.0 1083.0 1077.0 1079.0 1072.0 1070.0 1046.0 1028.0 996.0 975.0 931.0 893.0 877.0 852.0 834.0 799.0 781.0 742.0 728.0 688.0 657.0 598.0 589.0 550.0 534.0 517.0 507.0 500.0 494.0 450.0 425.0 386.0 365.0 335.0 323.0 308.0 304.0 297.0 294.0 287.0 284.0 281.0 280.0 289.0 295.0 312.0 305.0 281.0 250.0 241.0 237.0 236.0 233.0 234.0 235.0 238.0 238.0 237.0 234.0 233.0 243.0 257.0 263.0 263.0 264.0 264.0 265.0 266.0 269.0 277.0 286.0 289.0 292.0 293.0 293.0 300.0 318.0 346.0 398.0 420.0 461.0 460.0 458.0 439.0 415.0 383.0 377.0 368.0 368.0 379.0 401.0 429.0 436.0 460.0 470.0 489.0 511.0 543.0 543.0 518.0 500.0 466.0 454.0 440.0 433.0 444.0 429.0 395.0 381.0 379.0 379.0 381.0 381.0 381.0 383.0 387.0 389.0 390.0 390.0 391.0 391.0 392.0 391.0 391.0 392.0 394.0 391.0 392.0 387.0 382.0 386.0 385.0 380.0 380.0 380.0 380.0 379.0 378.0 376.0 376.0 376.0 374.0 372.0 372
1065.0 1160.0 1180.0 1173.0 1185.0 1235.0 1273.0 1355.0 1390.0 1410.0 1415.0 1455.0 1483.0 1519.0 1517.0 1511.0 1492.0 1492.0 1512.0 1597.0 1586.0 1600.0 1596.0 1621.0 1599.0 1524.0 1430.0 1377.0 1294.0 1273.0 1220.0 1196.0 1126.0 1096.0 1088.0 1066.0 1076.0 1108.0 1190.0 1230.0 1289.0 1324.0 1396.0 1439.0 1524.0 1560.0 1608.0 1624.0 1645.0 1649.0 1597.0 1560.0 1482.0 1451.0 1454.0 1442.0 1361.0 1331.0 1295.0 1269.0 1188.0 1142.0 1047.0 938.0 925.0 1002.0 1054.0 1121.0 1154.0 1243.0 1307.0 1343.0 1328.0 1244.0 1206.0 1117.0 1099.0 1149.0 1188.0 1250.0 1247.0 1210.0 1157.0 1067.0 1037.0 999.0 1023.0 1081.0 1089.0 1128.0 1130.0 1119.0 1104.0 1104.0 1058.0 1044.0 975.0 938.0 854.0 849.0 875.0 862.0 826.0 767.0 759.0 717.0 690.0 697.0 737.0 799.0 771.0 753.0 772.0 773.0 807.0 861.0 874.0 834.0 796.0 722.0 689.0 720.0 727.0 708.0 705.0 676.0 655.0 647.0 638.0 614.0 606.0 580.0 561.0 538.0 524.0 496.0 486.0 492.0 527.0 548.0 552.0 530.0 483.0 464.0 483.0 491.0 438.0 418.0 411.0 409.0 409.0 410.0 420.0 423.0 441.0 462.0 501.0 515.0 525.0 522.0 529.0 539.0 569.0 589.0 627.0 644.0 668.0 680.0 727.0 754.0 806.0 827.0 872.0 884.0 925.0 976.0 995.0 1034.0 1054.0 1105.0 1134.0 1201.0 1225.0 1258.0 1291.0 1337.0 1339.0 1330.0 1332.0 1330.0 1317.0 1325.0 1320.0 1304.0 1290.0 1250.0 1234.0 1256.0 1285.0 1328.0 1354.0 1353.0 1347.0 1351.0 1361.0 1364.0 1354.0 1324.0 1309.0 1281.0 1280.0 1256.0 1254.0 1252.0 1212.0 1207.0 1218.0 1200.0 1177.0 1184.0 1149.0 1116.0 1106.0 1142.0 1191.0 1194.0 1192.0 1188.0 1179.0 1169.0 1112.0 1096.0 1066.0 1070.0 1073.0 1077.0 1084.0 1100.0 1106.0 1106.0 1094.0 1104.0 1135.0 1155.0 1168.0 1155.0 1120.0 1079.0 1064.0 1049.0 1015.0 1007.0 996.0 914.0 910.0 960.0 985.0 1025.0 1035.0 1001.0 997.0 979.0 968.0 964.0 987.0 1011.0 996.0 987.0 974.0 960.0 982.0 960.0 972.0 1023.0 1059.0 1115.0 1126.0 1124.0 1109.0 1087.0 1083.0 1076.0 1081.0 1094.0 1096.0 1084.0 1050.0 1055.0 1060.0 1053.0 1018.0 992.0 961.0 945.0 915.0 924.0 987.0 1011.0 1053.0 1077.0 1109.0 1122.0 1146.0 1138.0 1101.0 1094.0 1087.0 1078.0 1067.0 1066.0 1035.0 1020.0 992.0 970.0 930.0 914.0 881.0 871.0 837.0 808.0 792.0 753.0 737.0 687.0 656.0 612.0 602.0 564.0 544.0 521.0 511.0 502.0 481.0 441.0 416.0 386.0 383.0 370.0 348.0 322.0 313.0 298.0 294.0 289.0 286.0 279.0 276.0 278.0 285.0 291.0 296.0 270.0 257.0 256.0 237.0 235.0 232.0 233.0 237.0 240.0 244.0 236.0 234.0 233.0 242.0 257.0 263.0 265.0 264.0 266.0 268.0 269.0 267.0 278.0 285.0 286.0 288.0 288.0 289.0 291.0 302.0 329.0 389.0 408.0 448.0 450.0 440.0 434.0 423.0 393.0 362.0 363.0 364.0 384.0 404.0 417.0 419.0 442.0 454.0 453.0 478.0 509.0 510.0 499.0 485.0 445.0 428.0 416.0 424.0 438.0 419.0 383.0 375.0 373.0 375.0 377.0 378.0 380.0 382.0 383.0 384.0 385.0 387.0 387.0 388.0 390.0 388.0 388.0 387.0 387.0 386.0 386.0 385.0 382.0 382.0 380.0 378.0 379.0 377.0 377.0 377.0 375.0 374.0 374.0 375.0 373.0 368.0 369
1157.0 1202.0 1217.0 1220.0 1232.0 1284.0 1310.0 1373.0 1380.0 1386.0 1397.0 1432.0 1455.0 1498.0 1507.0 1526.0 1533.0 1550.0 1595.0 1641.0 1639.0 1660.0 1652.0 1646.0 1613.0 1523.0 1481.0 1404.0 1352.0 1337.0 1307.0 1238.0 1153.0 1119.0 1103.0 1081.0 1091.0 1121.0 1190.0 1227.0 1293.0 1325.0 1393.0 1433.0 1506.0 1534.0 1576.0 1589.0 1608.0 1616.0 1600.0 1570.0 1513.0 1500.0 1474.0 1431.0 1387.0 1364.0 1284.0 1239.0 1166.0 1133.0 1043.0 990.0 898.0 928.0 1023.0 1070.0 1097.0 1199.0 1253.0 1299.0 1302.0 1236.0 1174.0 1098.0 1062.0 1118.0 1149.0 1197.0 1184.0 1193.0 1168.0 1086.0 1048.0 979.0 997.0 1024.0 1037.0 1075.0 1082.0 1076.0 1062.0 1062.0 1022.0 1013.0 986.0 950.0 863.0 813.0 815.0 836.0 812.0 768.0 715.0 710.0 670.0 716.0 754.0 789.0 758.0 722.0 740.0 808.0 835.0 880.0 879.0 818.0 784.0 708.0 675.0 689.0 685.0 669.0 675.0 660.0 642.0 615.0 614.0 594.0 597.0 585.0 580.0 557.0 550.0 518.0 496.0 475.0 495.0 529.0 531.0 539.0 501.0 473.0 452.0 459.0 421.0 416.0 412.0 410.0 411.0 423.0 426.0 427.0 449.0 462.0 485.0 493.0 511.0 520.0 547.0 570.0 602.0 623.0 655.0 667.0 698.0 711.0 744.0 769.0 833.0 854.0 879.0 895.0 933.0 961.0 1007.0 1025.0 1062.0 1089.0 1144.0 1205.0 1229.0 1274.0 1304.0 1334.0 1337.0 1342.0 1341.0 1325.0 1333.0 1327.0 1320.0 1295.0 1274.0 1243.0 1236.0 1260.0 1295.0 1345.0 1370.0 1364.0 1348.0 1337.0 1345.0 1351.0 1337.0 1304.0 1290.0 1312.0 1296.0 1278.0 1275.0 1258.0 1238.0 1221.0 1221.0 1194.0 1205.0 1213.0 1141.0 1104.0 1128.0 1158.0 1193.0 1208.0 1207.0 1212.0 1187.0 1150.0 1089.0 1078.0 1077.0 1085.0 1083.0 1082.0 1079.0 1090.0 1119.0 1129.0 1122.0 1128.0 1157.0 1169.0 1160.0 1139.0 1092.0 1076.0 1052.0 1032.0 1049.0 1045.0 1013.0 930.0 918.0 969.0 989.0 1032.0 1048.0 1018.0 1005.0 988.0 980.0 973.0 990.0 1032.0 1028.0 1005.0 1019.0 1029.0 1022.0 1007.0 992.0 1007.0 1042.0 1107.0 1134.0 1164.0 1154.0 1135.0 1128.0 1122.0 1125.0 1118.0 1117.0 1097.0 1086.0 1093.0 1115.0 1081.0 1039.0 1015.0 978.0 958.0 932.0 929.0 996.0 1020.0 1037.0 1054.0 1102.0 1124.0 1151.0 1145.0 1116.0 1108.0 1097.0 1086.0 1063.0 1051.0 1025.0 1007.0 978.0 965.0 930.0 912.0 882.0 869.0 838.0 817.0 786.0 768.0 736.0 711.0 667.0 630.0 612.0 577.0 553.0 529.0 517.0 465.0 449.0 431.0 418.0 436.0 430.0 406.0 392.0 371.0 361.0 324.0 306.0 288.0 285.0 278.0 277.0 271.0 277.0 272.0 271.0 258.0 257.0 256.0 255.0 246.0 241.0 238.0 238.0 248.0 251.0 239.0 231.0 230.0 243.0 259.0 262.0 265.0 271.0 270.0 263.0 264.0 268.0 281.0 285.0 287.0 286.0 286.0 287.0 288.0 291.0 304.0 367.0 396.0 421.0 432.0 422.0 421.0 415.0 397.0 358.0 353.0 360.0 372.0 407.0 411.0 403.0 418.0 428.0 425.0 444.0 469.0 476.0 474.0 459.0 426.0 409.0 411.0 428.0 424.0 410.0 379.0 369.0 370.0 371.0 373.0 374.0 379.0 380.0 379.0 379.0 379.0 382.0 381.0 383.0 383.0 384.0 384.0 385.0 383.0 382.0 381.0 382.0 376.0 375.0 377.0 373.0 375.0 376.0 375.0 373.0 372.0 373.0 372.0 371.0 369.0 366.0 367
1193.0 1206.0 1220.0 1210.0 1224.0 1265.0 1286.0 1331.0 1340.0 1359.0 1367.0 1401.0 1424.0 1464.0 1475.0 1501.0 1518.0 1542.0 1574.0 1630.0 1651.0 1700.0 1715.0 1717.0 1701.0 1607.0 1569.0 1530.0 1510.0 1382.0 1339.0 1263.0 1210.0 1152.0 1137.0 1144.0 1129.0 1140.0 1196.0 1226.0 1282.0 1310.0 1368.0 1404.0 1470.0 1494.0 1537.0 1553.0 1566.0 1572.0 1569.0 1565.0 1549.0 1525.0 1479.0 1464.0 1395.0 1353.0 1269.0 1237.0 1180.0 1141.0 1038.0 988.0 901.0 889.0 972.0 1000.0 1050.0 1080.0 1175.0 1184.0 1207.0 1150.0 1124.0 1079.0 1037.0 1089.0 1122.0 1137.0 1121.0 1134.0 1146.0 1115.0 1070.0 985.0 954.0 973.0 998.0 1019.0 1031.0 988.0 982.0 982.0 986.0 973.0 969.0 946.0 861.0 818.0 768.0 790.0 804.0 761.0 698.0 679.0 669.0 699.0 779.0 783.0 731.0 706.0 775.0 832.0 854.0 879.0 876.0 795.0 757.0 689.0 660.0 648.0 642.0 638.0 643.0 634.0 632.0 589.0 587.0 572.0 547.0 551.0 567.0 561.0 544.0 530.0 507.0 466.0 476.0 504.0 502.0 515.0 518.0 494.0 463.0 434.0 426.0 414.0 412.0 416.0 427.0 432.0 432.0 435.0 451.0 462.0 480.0 491.0 517.0 529.0 565.0 590.0 634.0 656.0 693.0 702.0 721.0 739.0 766.0 806.0 846.0 863.0 896.0 906.0 948.0 972.0 1013.0 1034.0 1074.0 1100.0 1145.0 1168.0 1228.0 1253.0 1320.0 1330.0 1331.0 1342.0 1341.0 1325.0 1321.0 1306.0 1308.0 1287.0 1265.0 1240.0 1248.0 1265.0 1294.0 1354.0 1373.0 1364.0 1347.0 1323.0 1322.0 1324.0 1316.0 1297.0 1320.0 1329.0 1315.0 1301.0 1286.0 1253.0 1242.0 1238.0 1238.0 1207.0 1194.0 1214.0 1136.0 1103.0 1122.0 1158.0 1181.0 1206.0 1229.0 1232.0 1182.0 1145.0 1083.0 1074.0 1101.0 1103.0 1098.0 1098.0 1084.0 1088.0 1113.0 1130.0 1152.0 1159.0 1193.0 1199.0 1171.0 1147.0 1105.0 1124.0 1064.0 1047.0 1082.0 1082.0 1026.0 996.0 924.0 951.0 997.0 1011.0 1049.0 1047.0 1033.0 1005.0 1002.0 982.0 1001.0 1045.0 1053.0 1043.0 1033.0 1046.0 1040.0 1042.0 1026.0 1003.0 1030.0 1092.0 1126.0 1185.0 1189.0 1173.0 1168.0 1153.0 1162.0 1157.0 1146.0 1119.0 1121.0 1149.0 1137.0 1100.0 1078.0 1036.0 1015.0 974.0 959.0 940.0 991.0 1029.0 1057.0 1056.0 1092.0 1117.0 1150.0 1152.0 1133.0 1123.0 1105.0 1102.0 1064.0 1052.0 1022.0 1004.0 965.0 948.0 929.0 913.0 872.0 857.0 836.0 818.0 789.0 775.0 748.0 732.0 691.0 664.0 611.0 586.0 558.0 527.0 504.0 464.0 475.0 455.0 452.0 471.0 469.0 451.0 443.0 422.0 407.0 362.0 334.0 295.0 288.0 280.0 276.0 269.0 276.0 263.0 261.0 263.0 261.0 257.0 256.0 255.0 256.0 251.0 251.0 253.0 252.0 238.0 233.0 233.0 238.0 264.0 263.0 264.0 268.0 263.0 266.0 267.0 272.0 282.0 285.0 285.0 287.0 286.0 285.0 286.0 287.0 288.0 347.0 372.0 389.0 396.0 394.0 401.0 393.0 394.0 357.0 351.0 357.0 375.0 408.0 411.0 402.0 393.0 405.0 408.0 421.0 429.0 438.0 442.0 439.0 420.0 399.0 409.0 411.0 404.0 368.0 366.0 366.0 363.0 363.0 369.0 371.0 375.0 376.0 373.0 375.0 377.0 378.0 379.0 380.0 380.0 382.0 381.0 380.0 379.0 379.0 375.0 374.0 373.0 371.0 373.0 370.0 373.0 372.0 372.0 370.0 370.0 368.0 369.0 366.0 366.0 365.0 364
1157.0 1150.0 1162.0 1169.0 1192.0 1229.0 1249.0 1290.0 1299.0 1318.0 1328.0 1366.0 1387.0 1427.0 1438.0 1441.0 1468.0 1526.0 1556.0 1611.0 1636.0 1694.0 1730.0 1763.0 1730.0 1648.0 1608.0 1544.0 1493.0 1370.0 1320.0 1259.0 1229.0 1179.0 1172.0 1168.0 1159.0 1152.0 1167.0 1225.0 1245.0 1290.0 1341.0 1376.0 1433.0 1457.0 1498.0 1512.0 1520.0 1525.0 1524.0 1545.0 1547.0 1523.0 1486.0 1460.0 1394.0 1361.0 1312.0 1280.0 1188.0 1137.0 1039.0 997.0 903.0 863.0 924.0 947.0 993.0 1020.0 1097.0 1080.0 1147.0 1130.0 1062.0 1042.0 1006.0 1028.0 1087.0 1068.0 1052.0 1071.0 1090.0 1134.0 1093.0 1001.0 952.0 930.0 961.0 972.0 942.0 950.0 941.0 941.0 935.0 924.0 923.0 922.0 864.0 825.0 742.0 740.0 787.0 759.0 687.0 665.0 681.0 720.0 783.0 765.0 689.0 706.0 763.0 783.0 825.0 830.0 866.0 784.0 750.0 693.0 667.0 619.0 608.0 608.0 609.0 615.0 619.0 578.0 572.0 577.0 552.0 524.0 541.0 542.0 527.0 505.0 495.0 463.0 457.0 469.0 469.0 479.0 486.0 488.0 462.0 424.0 418.0 413.0 414.0 419.0 425.0 436.0 441.0 447.0 476.0 488.0 503.0 517.0 534.0 538.0 563.0 581.0 620.0 640.0 674.0 692.0 725.0 732.0 787.0 812.0 852.0 870.0 907.0 921.0 958.0 979.0 1020.0 1038.0 1082.0 1108.0 1156.0 1179.0 1228.0 1263.0 1329.0 1328.0 1325.0 1324.0 1325.0 1321.0 1311.0 1295.0 1285.0 1270.0 1253.0 1257.0 1276.0 1285.0 1300.0 1345.0 1364.0 1359.0 1343.0 1318.0 1312.0 1314.0 1320.0 1331.0 1337.0 1335.0 1326.0 1310.0 1289.0 1262.0 1258.0 1248.0 1238.0 1210.0 1198.0 1207.0 1171.0 1111.0 1144.0 1192.0 1189.0 1198.0 1205.0 1226.0 1189.0 1154.0 1094.0 1080.0 1114.0 1123.0 1116.0 1111.0 1099.0 1090.0 1108.0 1128.0 1160.0 1175.0 1214.0 1223.0 1190.0 1163.0 1151.0 1146.0 1079.0 1077.0 1111.0 1107.0 1041.0 1005.0 931.0 941.0 1000.0 1016.0 1056.0 1065.0 1058.0 1048.0 1026.0 996.0 1004.0 1053.0 1076.0 1058.0 1048.0 1071.0 1062.0 1057.0 1045.0 1011.0 1034.0 1096.0 1127.0 1190.0 1208.0 1211.0 1204.0 1178.0 1194.0 1195.0 1176.0 1193.0 1186.0 1167.0 1149.0 1113.0 1095.0 1060.0 1039.0 994.0 985.0 963.0 954.0 1003.0 1033.0 1083.0 1100.0 1118.0 1149.0 1157.0 1155.0 1142.0 1131.0 1119.0 1072.0 1057.0 1027.0 1003.0 964.0 949.0 917.0 904.0 869.0 853.0 832.0 815.0 786.0 767.0 736.0 724.0 689.0 662.0 614.0 600.0 576.0 558.0 502.0 482.0 507.0 490.0 484.0 475.0 473.0 462.0 454.0 430.0 409.0 363.0 355.0 331.0 311.0 288.0 320.0 337.0 323.0 287.0 271.0 262.0 260.0 257.0 257.0 255.0 256.0 254.0 253.0 250.0 250.0 233.0 233.0 236.0 250.0 262.0 261.0 261.0 263.0 263.0 265.0 266.0 277.0 283.0 285.0 285.0 286.0 287.0 288.0 286.0 285.0 285.0 317.0 336.0 360.0 368.0 369.0 380.0 396.0 410.0 366.0 351.0 353.0 373.0 404.0 406.0 399.0 390.0 387.0 388.0 403.0 401.0 406.0 411.0 414.0 399.0 381.0 391.0 363.0 361.0 360.0 364.0 363.0 361.0 365.0 366.0 368.0 371.0 370.0 369.0 368.0 374.0 374.0 374.0 377.0 376.0 376.0 376.0 377.0 376.0 373.0 371.0 371.0 370.0 368.0 372.0 370.0 370.0 369.0 370.0 368.0 367.0 366.0 366.0 363.0 362.0 363.0 362
1102.0 1089.0 1103.0 1106.0 1149.0 1170.0 1211.0 1231.0 1257.0 1273.0 1286.0 1327.0 1345.0 1383.0 1360.0 1418.0 1446.0 1509.0 1539.0 1592.0 1619.0 1686.0 1728.0 1782.0 1745.0 1645.0 1604.0 1506.0 1474.0 1381.0 1354.0 1293.0 1278.0 1226.0 1234.0 1196.0 1185.0 1173.0 1172.0 1209.0 1230.0 1271.0 1293.0 1349.0 1374.0 1413.0 1432.0 1463.0 1479.0 1479.0 1498.0 1527.0 1514.0 1489.0 1437.0 1409.0 1372.0 1368.0 1328.0 1280.0 1194.0 1151.0 1067.0 1023.0 937.0 890.0 867.0 900.0 935.0 963.0 983.0 1031.0 1090.0 1078.0 1003.0 989.0 960.0 997.0 1041.0 1016.0 984.0 980.0 1053.0 1144.0 1115.0 1011.0 960.0 891.0 869.0 886.0 900.0 904.0 892.0 892.0 888.0 873.0 873.0 882.0 852.0 829.0 740.0 708.0 746.0 741.0 667.0 646.0 695.0 736.0 772.0 750.0 686.0 683.0 725.0 752.0 779.0 791.0 846.0 827.0 739.0 705.0 654.0 632.0 602.0 579.0 580.0 588.0 590.0 557.0 545.0 566.0 553.0 506.0 517.0 509.0 501.0 476.0 467.0 453.0 448.0 451.0 445.0 446.0 450.0 455.0 440.0 420.0 420.0 414.0 415.0 423.0 437.0 440.0 443.0 457.0 468.0 495.0 512.0 522.0 516.0 527.0 532.0 558.0 593.0 610.0 645.0 666.0 709.0 728.0 778.0 803.0 847.0 867.0 909.0 924.0 965.0 987.0 1028.0 1043.0 1082.0 1108.0 1169.0 1188.0 1237.0 1275.0 1327.0 1330.0 1324.0 1321.0 1326.0 1330.0 1332.0 1321.0 1288.0 1267.0 1249.0 1277.0 1287.0 1317.0 1332.0 1349.0 1358.0 1354.0 1336.0 1326.0 1332.0 1334.0 1330.0 1333.0 1337.0 1331.0 1320.0 1302.0 1291.0 1273.0 1268.0 1249.0 1234.0 1207.0 1213.0 1201.0 1165.0 1129.0 1168.0 1220.0 1224.0 1214.0 1208.0 1217.0 1214.0 1161.0 1133.0 1100.0 1085.0 1128.0 1126.0 1127.0 1119.0 1105.0 1104.0 1118.0 1145.0 1164.0 1213.0 1232.0 1227.0 1206.0 1173.0 1163.0 1101.0 1104.0 1136.0 1119.0 1055.0 1025.0 939.0 934.0 998.0 1021.0 1056.0 1066.0 1075.0 1068.0 1050.0 1034.0 1032.0 1025.0 1070.0 1072.0 1058.0 1081.0 1080.0 1070.0 1055.0 1024.0 1038.0 1097.0 1124.0 1183.0 1207.0 1232.0 1229.0 1204.0 1220.0 1227.0 1247.0 1225.0 1209.0 1182.0 1167.0 1128.0 1110.0 1069.0 1052.0 1021.0 1012.0 992.0 977.0 980.0 1017.0 1080.0 1105.0 1139.0 1153.0 1161.0 1177.0 1165.0 1135.0 1124.0 1080.0 1059.0 1034.0 1016.0 972.0 954.0 919.0 902.0 878.0 862.0 827.0 806.0 773.0 750.0 710.0 693.0 637.0 634.0 619.0 604.0 565.0 544.0 501.0 510.0 522.0 508.0 488.0 481.0 469.0 467.0 447.0 428.0 410.0 384.0 376.0 359.0 348.0 344.0 330.0 330.0 332.0 311.0 294.0 262.0 260.0 257.0 256.0 255.0 254.0 253.0 254.0 252.0 251.0 233.0 231.0 237.0 253.0 262.0 262.0 263.0 263.0 262.0 263.0 267.0 268.0 284.0 283.0 284.0 284.0 286.0 287.0 285.0 285.0 285.0 294.0 304.0 331.0 343.0 340.0 363.0 385.0 395.0 379.0 352.0 351.0 373.0 397.0 400.0 392.0 390.0 375.0 375.0 384.0 381.0 380.0 380.0 387.0 387.0 370.0 357.0 355.0 357.0 358.0 360.0 361.0 361.0 364.0 362.0 365.0 366.0 365.0 364.0 367.0 371.0 371.0 370.0 372.0 370.0 371.0 370.0 370.0 367.0 368.0 368.0 367.0 367.0 365.0 366.0 366.0 367.0 366.0 366.0 366.0 365.0 365.0 363.0 365.0 364.0 365.0 362
1046.0 1033.0 1048.0 1066.0 1110.0 1134.0 1176.0 1199.0 1217.0 1221.0 1250.0 1273.0 1263.0 1281.0 1334.0 1401.0 1428.0 1496.0 1525.0 1578.0 1610.0 1674.0 1713.0 1753.0 1751.0 1692.0 1644.0 1548.0 1506.0 1434.0 1394.0 1373.0 1338.0 1303.0 1276.0 1242.0 1226.0 1203.0 1198.0 1205.0 1221.0 1265.0 1290.0 1317.0 1334.0 1365.0 1384.0 1427.0 1442.0 1439.0 1468.0 1499.0 1477.0 1466.0 1399.0 1368.0 1319.0 1326.0 1294.0 1263.0 1212.0 1163.0 1071.0 1028.0 949.0 899.0 814.0 824.0 840.0 865.0 940.0 980.0 1038.0 1027.0 958.0 936.0 929.0 969.0 974.0 946.0 916.0 932.0 1046.0 1099.0 1119.0 1077.0 983.0 977.0 873.0 842.0 852.0 853.0 846.0 846.0 850.0 830.0 828.0 835.0 810.0 794.0 742.0 709.0 698.0 703.0 644.0 640.0 701.0 730.0 789.0 767.0 692.0 669.0 721.0 749.0 740.0 765.0 828.0 825.0 737.0 700.0 648.0 629.0 598.0 586.0 564.0 558.0 549.0 548.0 537.0 549.0 545.0 497.0 490.0 477.0 471.0 461.0 458.0 457.0 457.0 454.0 445.0 434.0 432.0 428.0 427.0 420.0 417.0 416.0 416.0 432.0 445.0 452.0 452.0 462.0 474.0 503.0 516.0 505.0 516.0 547.0 552.0 564.0 573.0 597.0 615.0 666.0 714.0 734.0 776.0 803.0 845.0 863.0 907.0 927.0 967.0 990.0 1040.0 1060.0 1086.0 1108.0 1166.0 1192.0 1255.0 1292.0 1334.0 1331.0 1323.0 1327.0 1343.0 1345.0 1337.0 1318.0 1283.0 1255.0 1274.0 1296.0 1304.0 1313.0 1357.0 1371.0 1360.0 1349.0 1332.0 1337.0 1346.0 1342.0 1340.0 1337.0 1336.0 1328.0 1314.0 1287.0 1279.0 1278.0 1272.0 1239.0 1227.0 1222.0 1208.0 1175.0 1145.0 1147.0 1189.0 1251.0 1239.0 1219.0 1214.0 1209.0 1209.0 1157.0 1134.0 1097.0 1085.0 1108.0 1108.0 1139.0 1143.0 1125.0 1116.0 1115.0 1136.0 1158.0 1212.0 1236.0 1251.0 1235.0 1192.0 1175.0 1123.0 1129.0 1143.0 1110.0 1044.0 1009.0 934.0 936.0 1005.0 1032.0 1053.0 1066.0 1074.0 1071.0 1064.0 1070.0 1061.0 1051.0 1053.0 1074.0 1093.0 1085.0 1094.0 1091.0 1068.0 1041.0 1035.0 1079.0 1105.0 1170.0 1197.0 1245.0 1252.0 1232.0 1274.0 1287.0 1280.0 1247.0 1231.0 1197.0 1177.0 1142.0 1124.0 1085.0 1065.0 1047.0 1041.0 1014.0 1004.0 980.0 1003.0 1059.0 1088.0 1137.0 1153.0 1168.0 1174.0 1170.0 1148.0 1122.0 1106.0 1058.0 1036.0 1021.0 980.0 963.0 921.0 902.0 877.0 856.0 828.0 807.0 762.0 741.0 702.0 673.0 619.0 607.0 589.0 579.0 541.0 528.0 534.0 543.0 533.0 521.0 497.0 486.0 470.0 462.0 459.0 452.0 434.0 421.0 394.0 398.0 381.0 360.0 346.0 326.0 327.0 316.0 303.0 280.0 270.0 257.0 254.0 256.0 254.0 253.0 252.0 250.0 250.0 235.0 231.0 235.0 243.0 261.0 262.0 262.0 264.0 262.0 261.0 266.0 269.0 285.0 285.0 284.0 284.0 285.0 284.0 286.0 286.0 285.0 291.0 296.0 311.0 325.0 348.0 368.0 376.0 372.0 364.0 343.0 359.0 379.0 395.0 395.0 387.0 384.0 373.0 367.0 376.0 369.0 365.0 363.0 363.0 350.0 353.0 352.0 349.0 352.0 356.0 357.0 357.0 355.0 361.0 360.0 361.0 363.0 361.0 361.0 366.0 367.0 367.0 365.0 368.0 366.0 366.0 365.0 365.0 365.0 366.0 365.0 365.0 363.0 364.0 363.0 363.0 364.0 363.0 363.0 364.0 363.0 361.0 360.0 362.0 359.0 358.0 356
985.0 978.0 1014.0 1039.0 1085.0 1106.0 1147.0 1164.0 1182.0 1184.0 1219.0 1202.0 1241.0 1261.0 1316.0 1349.0 1418.0 1453.0 1516.0 1571.0 1600.0 1675.0 1706.0 1715.0 1717.0 1712.0 1698.0 1610.0 1574.0 1572.0 1531.0 1427.0 1389.0 1362.0 1319.0 1292.0 1267.0 1237.0 1242.0 1242.0 1250.0 1283.0 1290.0 1281.0 1287.0 1319.0 1351.0 1412.0 1399.0 1430.0 1451.0 1445.0 1412.0 1421.0 1423.0 1358.0 1318.0 1268.0 1242.0 1212.0 1206.0 1164.0 1066.0 1018.0 932.0 894.0 802.0 780.0 784.0 817.0 889.0 933.0 976.0 973.0 911.0 884.0 915.0 939.0 902.0 878.0 869.0 912.0 1021.0 1066.0 1129.0 1118.0 1047.0 1004.0 906.0 862.0 809.0 805.0 800.0 800.0 796.0 780.0 766.0 784.0 770.0 747.0 705.0 683.0 660.0 664.0 630.0 629.0 690.0 731.0 788.0 756.0 689.0 662.0 710.0 714.0 722.0 752.0 808.0 811.0 735.0 704.0 650.0 627.0 597.0 588.0 566.0 554.0 530.0 531.0 528.0 521.0 517.0 505.0 480.0 469.0 472.0 480.0 484.0 496.0 488.0 475.0 466.0 447.0 438.0 424.0 420.0 418.0 417.0 417.0 417.0 440.0 449.0 456.0 462.0 461.0 471.0 494.0 493.0 512.0 530.0 546.0 555.0 571.0 580.0 605.0 610.0 652.0 681.0 734.0 757.0 807.0 830.0 870.0 907.0 924.0 964.0 987.0 1041.0 1055.0 1085.0 1110.0 1170.0 1203.0 1291.0 1319.0 1334.0 1333.0 1333.0 1340.0 1345.0 1347.0 1336.0 1326.0 1286.0 1257.0 1282.0 1301.0 1319.0 1326.0 1354.0 1366.0 1351.0 1346.0 1325.0 1332.0 1344.0 1349.0 1347.0 1339.0 1329.0 1313.0 1302.0 1276.0 1271.0 1268.0 1274.0 1243.0 1246.0 1225.0 1192.0 1138.0 1134.0 1211.0 1231.0 1262.0 1254.0 1230.0 1227.0 1213.0 1206.0 1152.0 1127.0 1110.0 1096.0 1090.0 1096.0 1128.0 1146.0 1156.0 1146.0 1132.0 1133.0 1164.0 1179.0 1231.0 1261.0 1254.0 1202.0 1177.0 1147.0 1163.0 1143.0 1104.0 1037.0 998.0 930.0 948.0 1012.0 1040.0 1070.0 1073.0 1057.0 1064.0 1074.0 1079.0 1094.0 1094.0 1066.0 1065.0 1100.0 1116.0 1115.0 1105.0 1089.0 1082.0 1051.0 1070.0 1123.0 1165.0 1189.0 1245.0 1267.0 1292.0 1296.0 1305.0 1301.0 1267.0 1249.0 1209.0 1189.0 1161.0 1144.0 1104.0 1088.0 1078.0 1071.0 1042.0 1030.0 1005.0 1001.0 1056.0 1076.0 1134.0 1151.0 1165.0 1175.0 1174.0 1156.0 1112.0 1095.0 1054.0 1045.0 1018.0 998.0 954.0 925.0 915.0 890.0 868.0 831.0 808.0 757.0 732.0 692.0 669.0 635.0 613.0 573.0 562.0 561.0 569.0 562.0 556.0 541.0 528.0 513.0 499.0 482.0 476.0 471.0 465.0 446.0 449.0 431.0 415.0 396.0 388.0 359.0 331.0 325.0 322.0 316.0 301.0 285.0 258.0 254.0 253.0 253.0 253.0 251.0 251.0 251.0 236.0 233.0 233.0 241.0 261.0 262.0 262.0 265.0 262.0 263.0 265.0 272.0 285.0 286.0 282.0 282.0 285.0 285.0 285.0 286.0 285.0 286.0 290.0 306.0 331.0 355.0 364.0 365.0 353.0 339.0 337.0 370.0 387.0 395.0 393.0 383.0 377.0 371.0 365.0 365.0 363.0 356.0 353.0 348.0 346.0 351.0 347.0 349.0 352.0 354.0 353.0 354.0 352.0 359.0 359.0 358.0 357.0 358.0 358.0 361.0 363.0 363.0 362.0 364.0 361.0 362.0 361.0 358.0 360.0 360.0 363.0 362.0 360.0 360.0 361.0 361.0 361.0 362.0 359.0 361.0 360.0 360.0 356.0 356.0 355.0 353.0 352
930.0 947.0 1001.0 1023.0 1059.0 1075.0 1112.0 1125.0 1146.0 1110.0 1156.0 1173.0 1226.0 1252.0 1316.0 1348.0 1419.0 1452.0 1518.0 1547.0 1611.0 1639.0 1668.0 1674.0 1685.0 1687.0 1702.0 1682.0 1684.0 1609.0 1566.0 1477.0 1445.0 1400.0 1380.0 1336.0 1313.0 1287.0 1290.0 1260.0 1246.0 1251.0 1252.0 1245.0 1251.0 1308.0 1362.0 1372.0 1390.0 1406.0 1420.0 1388.0 1352.0 1358.0 1392.0 1351.0 1306.0 1232.0 1216.0 1161.0 1162.0 1155.0 1121.0 1044.0 959.0 944.0 852.0 813.0 753.0 759.0 835.0 872.0 907.0 903.0 861.0 833.0 901.0 898.0 844.0 816.0 874.0 917.0 986.0 1036.0 1078.0 1082.0 1049.0 1025.0 945.0 907.0 841.0 819.0 789.0 789.0 772.0 745.0 733.0 730.0 727.0 705.0 688.0 674.0 670.0 642.0 616.0 622.0 683.0 723.0 784.0 752.0 688.0 659.0 677.0 679.0 733.0 767.0 800.0 782.0 730.0 703.0 647.0 626.0 608.0 595.0 583.0 568.0 530.0 516.0 513.0 511.0 499.0 491.0 478.0 480.0 496.0 502.0 516.0 525.0 510.0 505.0 497.0 472.0 450.0 421.0 419.0 418.0 417.0 417.0 423.0 454.0 460.0 464.0 465.0 471.0 471.0 479.0 489.0 522.0 530.0 544.0 555.0 595.0 605.0 618.0 620.0 647.0 674.0 738.0 763.0 815.0 837.0 877.0 895.0 925.0 941.0 988.0 1036.0 1050.0 1090.0 1117.0 1176.0 1231.0 1301.0 1329.0 1340.0 1338.0 1334.0 1334.0 1333.0 1333.0 1322.0 1317.0 1291.0 1265.0 1271.0 1278.0 1316.0 1340.0 1363.0 1366.0 1358.0 1340.0 1328.0 1335.0 1347.0 1349.0 1341.0 1345.0 1331.0 1319.0 1287.0 1276.0 1274.0 1260.0 1262.0 1244.0 1247.0 1213.0 1180.0 1168.0 1180.0 1197.0 1228.0 1263.0 1259.0 1240.0 1242.0 1220.0 1192.0 1140.0 1132.0 1124.0 1101.0 1096.0 1109.0 1113.0 1131.0 1178.0 1182.0 1196.0 1196.0 1200.0 1201.0 1229.0 1250.0 1252.0 1223.0 1179.0 1181.0 1186.0 1151.0 1116.0 1052.0 1013.0 936.0 957.0 1008.0 1027.0 1065.0 1022.0 1041.0 1067.0 1085.0 1096.0 1111.0 1123.0 1103.0 1095.0 1094.0 1111.0 1138.0 1124.0 1106.0 1102.0 1078.0 1080.0 1142.0 1170.0 1203.0 1225.0 1261.0 1277.0 1295.0 1307.0 1307.0 1285.0 1263.0 1221.0 1207.0 1184.0 1161.0 1123.0 1119.0 1105.0 1103.0 1067.0 1053.0 1028.0 1010.0 1043.0 1074.0 1142.0 1168.0 1182.0 1190.0 1183.0 1163.0 1115.0 1094.0 1060.0 1046.0 1015.0 996.0 955.0 942.0 916.0 906.0 880.0 829.0 806.0 749.0 735.0 697.0 678.0 647.0 627.0 599.0 600.0 594.0 589.0 577.0 568.0 552.0 538.0 523.0 513.0 491.0 485.0 480.0 475.0 468.0 456.0 435.0 425.0 404.0 400.0 377.0 357.0 325.0 321.0 332.0 330.0 303.0 286.0 253.0 254.0 252.0 252.0 251.0 251.0 249.0 246.0 239.0 229.0 235.0 261.0 263.0 261.0 263.0 264.0 263.0 264.0 273.0 284.0 285.0 285.0 285.0 283.0 284.0 283.0 286.0 287.0 287.0 289.0 291.0 316.0 335.0 361.0 351.0 337.0 331.0 335.0 369.0 382.0 397.0 401.0 396.0 386.0 368.0 363.0 355.0 355.0 345.0 344.0 345.0 342.0 345.0 343.0 347.0 348.0 349.0 351.0 349.0 350.0 354.0 354.0 354.0 353.0 357.0 356.0 358.0 358.0 359.0 357.0 357.0 357.0 358.0 360.0 357.0 358.0 356.0 359.0 358.0 356.0 356.0 356.0 358.0 359.0 359.0 358.0 358.0 361.0 357.0 356.0 351.0 352.0 351.0 350
899.0 928.0 971.0 988.0 1029.0 1034.0 1070.0 1084.0 1068.0 1083.0 1132.0 1156.0 1215.0 1247.0 1309.0 1341.0 1410.0 1444.0 1522.0 1557.0 1614.0 1620.0 1626.0 1633.0 1654.0 1650.0 1620.0 1637.0 1673.0 1675.0 1600.0 1571.0 1511.0 1460.0 1446.0 1391.0 1368.0 1331.0 1307.0 1259.0 1238.0 1220.0 1224.0 1224.0 1251.0 1316.0 1354.0 1349.0 1349.0 1364.0 1372.0 1326.0 1291.0 1292.0 1332.0 1351.0 1308.0 1221.0 1178.0 1119.0 1128.0 1111.0 1086.0 1071.0 1021.0 939.0 902.0 822.0 788.0 734.0 782.0 811.0 851.0 837.0 802.0 806.0 884.0 856.0 790.0 789.0 860.0 890.0 951.0 990.0 1036.0 1032.0 1002.0 999.0 988.0 963.0 895.0 875.0 855.0 855.0 842.0 788.0 755.0 722.0 711.0 703.0 714.0 725.0 687.0 624.0 608.0 652.0 683.0 732.0 787.0 762.0 692.0 655.0 656.0 678.0 737.0 766.0 769.0 743.0 705.0 686.0 649.0 635.0 592.0 579.0 560.0 547.0 520.0 512.0 500.0 494.0 488.0 486.0 501.0 516.0 523.0 532.0 536.0 553.0 536.0 541.0 519.0 496.0 447.0 420.0 419.0 420.0 419.0 426.0 442.0 464.0 471.0 475.0 475.0 481.0 487.0 492.0 499.0 521.0 530.0 543.0 580.0 595.0 604.0 637.0 638.0 647.0 673.0 722.0 752.0 804.0 824.0 862.0 883.0 921.0 938.0 983.0 1005.0 1051.0 1075.0 1135.0 1172.0 1247.0 1309.0 1332.0 1351.0 1349.0 1332.0 1324.0 1318.0 1313.0 1310.0 1314.0 1303.0 1288.0 1254.0 1253.0 1299.0 1327.0 1387.0 1399.0 1366.0 1345.0 1338.0 1344.0 1345.0 1345.0 1333.0 1331.0 1319.0 1307.0 1285.0 1283.0 1280.0 1271.0 1254.0 1252.0 1242.0 1190.0 1157.0 1216.0 1225.0 1197.0 1217.0 1238.0 1241.0 1254.0 1257.0 1219.0 1180.0 1158.0 1160.0 1123.0 1104.0 1105.0 1125.0 1113.0 1126.0 1176.0 1189.0 1216.0 1224.0 1240.0 1242.0 1250.0 1256.0 1236.0 1216.0 1208.0 1212.0 1206.0 1187.0 1122.0 1058.0 1009.0 942.0 962.0 979.0 995.0 983.0 985.0 1022.0 1047.0 1075.0 1095.0 1123.0 1137.0 1136.0 1137.0 1118.0 1112.0 1145.0 1144.0 1131.0 1121.0 1107.0 1103.0 1132.0 1162.0 1180.0 1198.0 1232.0 1247.0 1274.0 1287.0 1311.0 1312.0 1271.0 1253.0 1221.0 1194.0 1169.0 1150.0 1150.0 1137.0 1132.0 1096.0 1077.0 1040.0 1036.0 1045.0 1079.0 1142.0 1167.0 1186.0 1192.0 1187.0 1169.0 1124.0 1098.0 1061.0 1047.0 1013.0 995.0 961.0 956.0 929.0 913.0 889.0 860.0 812.0 805.0 770.0 744.0 707.0 672.0 664.0 641.0 637.0 607.0 595.0 589.0 581.0 557.0 552.0 532.0 519.0 505.0 496.0 493.0 487.0 472.0 467.0 457.0 446.0 408.0 399.0 387.0 370.0 330.0 322.0 339.0 340.0 324.0 309.0 271.0 255.0 251.0 252.0 251.0 250.0 249.0 249.0 249.0 229.0 235.0 262.0 264.0 260.0 263.0 263.0 263.0 267.0 270.0 275.0 275.0 278.0 279.0 282.0 284.0 282.0 285.0 284.0 286.0 291.0 294.0 305.0 323.0 354.0 352.0 328.0 326.0 330.0 361.0 376.0 393.0 404.0 409.0 403.0 385.0 376.0 369.0 363.0 347.0 338.0 341.0 339.0 342.0 342.0 346.0 346.0 348.0 348.0 347.0 349.0 351.0 352.0 353.0 351.0 355.0 353.0 353.0 353.0 350.0 353.0 353.0 353.0 356.0 357.0 354.0 355.0 353.0 355.0 354.0 354.0 353.0 353.0 355.0 356.0 356.0 356.0 357.0 356.0 356.0 351.0 350.0 349.0 349.0 347
884.0 902.0 935.0 965.0 993.0 990.0 1027.0 992.0 1045.0 1073.0 1132.0 1154.0 1206.0 1240.0 1306.0 1341.0 1420.0 1461.0 1520.0 1545.0 1591.0 1587.0 1588.0 1591.0 1619.0 1582.0 1585.0 1606.0 1641.0 1647.0 1652.0 1640.0 1585.0 1552.0 1497.0 1462.0 1384.0 1355.0 1296.0 1242.0 1219.0 1198.0 1199.0 1220.0 1218.0 1285.0 1317.0 1336.0 1329.0 1317.0 1307.0 1260.0 1235.0 1227.0 1270.0 1335.0 1312.0 1226.0 1174.0 1091.0 1083.0 1054.0 985.0 975.0 960.0 905.0 869.0 802.0 785.0 733.0 724.0 746.0 781.0 768.0 773.0 824.0 862.0 826.0 759.0 780.0 843.0 871.0 929.0 961.0 984.0 976.0 947.0 943.0 971.0 959.0 942.0 944.0 914.0 914.0 886.0 819.0 804.0 768.0 755.0 766.0 765.0 705.0 680.0 611.0 605.0 663.0 696.0 741.0 757.0 742.0 711.0 640.0 635.0 683.0 727.0 745.0 737.0 715.0 677.0 665.0 633.0 619.0 580.0 571.0 540.0 528.0 521.0 524.0 513.0 507.0 505.0 516.0 536.0 540.0 550.0 561.0 560.0 574.0 570.0 542.0 502.0 485.0 439.0 421.0 420.0 421.0 423.0 427.0 443.0 456.0 463.0 475.0 480.0 490.0 496.0 508.0 512.0 522.0 543.0 577.0 591.0 602.0 616.0 652.0 662.0 663.0 668.0 697.0 722.0 773.0 799.0 847.0 871.0 911.0 932.0 978.0 1006.0 1054.0 1090.0 1150.0 1184.0 1246.0 1275.0 1330.0 1347.0 1357.0 1341.0 1329.0 1316.0 1312.0 1323.0 1336.0 1317.0 1295.0 1261.0 1259.0 1298.0 1336.0 1391.0 1406.0 1379.0 1360.0 1341.0 1342.0 1339.0 1334.0 1335.0 1320.0 1299.0 1297.0 1294.0 1292.0 1282.0 1273.0 1264.0 1263.0 1191.0 1181.0 1200.0 1220.0 1224.0 1212.0 1210.0 1225.0 1240.0 1269.0 1270.0 1222.0 1195.0 1189.0 1173.0 1126.0 1120.0 1110.0 1136.0 1127.0 1145.0 1150.0 1166.0 1211.0 1234.0 1267.0 1273.0 1284.0 1280.0 1242.0 1227.0 1227.0 1227.0 1208.0 1182.0 1113.0 1079.0 993.0 958.0 990.0 1025.0 989.0 994.0 988.0 990.0 1008.0 1051.0 1080.0 1121.0 1130.0 1140.0 1147.0 1148.0 1137.0 1145.0 1163.0 1167.0 1151.0 1140.0 1142.0 1154.0 1155.0 1173.0 1180.0 1202.0 1217.0 1255.0 1280.0 1313.0 1310.0 1277.0 1261.0 1232.0 1214.0 1176.0 1166.0 1165.0 1160.0 1154.0 1124.0 1125.0 1078.0 1057.0 1045.0 1075.0 1137.0 1160.0 1174.0 1184.0 1183.0 1171.0 1125.0 1096.0 1055.0 1041.0 1012.0 992.0 965.0 958.0 936.0 919.0 879.0 860.0 859.0 854.0 805.0 779.0 732.0 726.0 702.0 683.0 653.0 624.0 607.0 592.0 585.0 567.0 563.0 540.0 536.0 519.0 519.0 504.0 496.0 477.0 470.0 465.0 459.0 423.0 405.0 388.0 381.0 339.0 325.0 334.0 339.0 337.0 332.0 293.0 273.0 253.0 252.0 249.0 249.0 248.0 250.0 249.0 232.0 239.0 261.0 263.0 262.0 262.0 261.0 262.0 266.0 268.0 267.0 267.0 268.0 269.0 276.0 274.0 281.0 283.0 283.0 285.0 293.0 297.0 302.0 312.0 341.0 334.0 322.0 324.0 325.0 333.0 368.0 375.0 395.0 401.0 405.0 387.0 370.0 354.0 350.0 347.0 342.0 335.0 334.0 339.0 339.0 343.0 343.0 347.0 345.0 343.0 344.0 346.0 348.0 350.0 349.0 352.0 351.0 344.0 347.0 348.0 350.0 348.0 350.0 353.0 353.0 351.0 353.0 350.0 350.0 352.0 353.0 351.0 349.0 352.0 353.0 354.0 355.0 354.0 349.0 348.0 348.0 350.0 347.0 348.0 345
834.0 872.0 899.0 952.0 958.0 905.0 942.0 968.0 1030.0 1071.0 1135.0 1162.0 1228.0 1272.0 1353.0 1386.0 1439.0 1458.0 1497.0 1522.0 1557.0 1552.0 1551.0 1555.0 1543.0 1548.0 1560.0 1579.0 1601.0 1608.0 1629.0 1645.0 1604.0 1565.0 1493.0 1457.0 1378.0 1345.0 1282.0 1258.0 1240.0 1212.0 1162.0 1149.0 1185.0 1251.0 1265.0 1294.0 1306.0 1290.0 1262.0 1200.0 1172.0 1168.0 1202.0 1289.0 1284.0 1235.0 1193.0 1097.0 1052.0 1025.0 991.0 952.0 929.0 888.0 860.0 850.0 830.0 784.0 744.0 704.0 723.0 731.0 763.0 799.0 801.0 805.0 761.0 778.0 838.0 859.0 889.0 916.0 942.0 937.0 902.0 898.0 914.0 903.0 931.0 958.0 945.0 945.0 908.0 853.0 824.0 776.0 757.0 690.0 680.0 658.0 652.0 611.0 597.0 644.0 677.0 698.0 712.0 734.0 701.0 628.0 622.0 666.0 678.0 706.0 722.0 696.0 649.0 625.0 607.0 594.0 573.0 562.0 536.0 531.0 554.0 555.0 544.0 539.0 541.0 546.0 565.0 568.0 577.0 582.0 590.0 569.0 564.0 537.0 495.0 469.0 428.0 421.0 420.0 420.0 424.0 434.0 454.0 458.0 465.0 469.0 481.0 488.0 502.0 513.0 517.0 534.0 542.0 560.0 571.0 589.0 599.0 627.0 645.0 688.0 699.0 702.0 711.0 758.0 786.0 837.0 863.0 905.0 934.0 988.0 1026.0 1076.0 1099.0 1155.0 1188.0 1248.0 1276.0 1316.0 1334.0 1359.0 1356.0 1350.0 1342.0 1326.0 1330.0 1335.0 1305.0 1278.0 1281.0 1311.0 1316.0 1337.0 1384.0 1392.0 1374.0 1357.0 1347.0 1336.0 1326.0 1323.0 1330.0 1315.0 1302.0 1306.0 1302.0 1299.0 1285.0 1281.0 1278.0 1260.0 1184.0 1201.0 1243.0 1245.0 1229.0 1240.0 1231.0 1215.0 1256.0 1275.0 1273.0 1252.0 1215.0 1214.0 1189.0 1150.0 1143.0 1110.0 1131.0 1166.0 1175.0 1160.0 1161.0 1195.0 1225.0 1278.0 1296.0 1310.0 1307.0 1265.0 1249.0 1242.0 1229.0 1191.0 1170.0 1092.0 1054.0 976.0 961.0 1045.0 1055.0 1034.0 1032.0 1018.0 1005.0 985.0 1022.0 1053.0 1083.0 1086.0 1098.0 1111.0 1142.0 1162.0 1155.0 1171.0 1190.0 1183.0 1217.0 1214.0 1192.0 1204.0 1207.0 1215.0 1221.0 1217.0 1240.0 1261.0 1296.0 1304.0 1289.0 1279.0 1248.0 1229.0 1198.0 1200.0 1187.0 1184.0 1172.0 1171.0 1138.0 1117.0 1072.0 1054.0 1084.0 1134.0 1150.0 1177.0 1187.0 1175.0 1161.0 1126.0 1103.0 1057.0 1039.0 1005.0 990.0 961.0 947.0 940.0 930.0 889.0 883.0 885.0 871.0 824.0 800.0 767.0 767.0 732.0 719.0 678.0 656.0 622.0 614.0 594.0 572.0 564.0 552.0 550.0 537.0 526.0 509.0 503.0 485.0 472.0 461.0 462.0 448.0 427.0 389.0 382.0 353.0 330.0 327.0 332.0 338.0 336.0 304.0 287.0 261.0 252.0 251.0 248.0 251.0 248.0 243.0 236.0 245.0 253.0 264.0 262.0 262.0 262.0 262.0 266.0 267.0 267.0 268.0 268.0 269.0 272.0 273.0 280.0 282.0 285.0 288.0 294.0 298.0 305.0 311.0 322.0 317.0 319.0 319.0 323.0 336.0 365.0 371.0 381.0 378.0 358.0 360.0 352.0 343.0 338.0 337.0 335.0 333.0 333.0 335.0 336.0 339.0 340.0 341.0 341.0 340.0 341.0 342.0 344.0 347.0 343.0 347.0 346.0 340.0 341.0 346.0 347.0 347.0 348.0 349.0 348.0 350.0 349.0 348.0 348.0 348.0 347.0 348.0 348.0 350.0 350.0 350.0 351.0 348.0 346.0 345.0 344.0 345.0 345.0 344.0 343
827.0 876.0 897.0 911.0 861.0 883.0 920.0 992.0 1022.0 1101.0 1136.0 1202.0 1277.0 1309.0 1383.0 1412.0 1422.0 1428.0 1460.0 1481.0 1516.0 1515.0 1489.0 1495.0 1514.0 1512.0 1531.0 1545.0 1560.0 1567.0 1592.0 1612.0 1585.0 1547.0 1485.0 1447.0 1371.0 1339.0 1299.0 1304.0 1281.0 1228.0 1172.0 1160.0 1141.0 1179.0 1198.0 1211.0 1247.0 1240.0 1220.0 1157.0 1125.0 1109.0 1145.0 1225.0 1236.0 1221.0 1201.0 1102.0 1086.0 1059.0 1050.0 1010.0 982.0 957.0 931.0 914.0 887.0 833.0 791.0 712.0 689.0 725.0 754.0 742.0 752.0 781.0 710.0 765.0 794.0 811.0 820.0 873.0 892.0 905.0 860.0 856.0 855.0 848.0 886.0 911.0 959.0 959.0 923.0 847.0 808.0 741.0 762.0 696.0 665.0 647.0 633.0 607.0 594.0 623.0 643.0 654.0 676.0 730.0 705.0 625.0 608.0 633.0 646.0 685.0 706.0 676.0 657.0 618.0 598.0 573.0 563.0 545.0 549.0 555.0 583.0 578.0 568.0 566.0 568.0 572.0 577.0 580.0 574.0 572.0 549.0 540.0 562.0 545.0 498.0 463.0 425.0 421.0 422.0 422.0 426.0 440.0 456.0 461.0 469.0 474.0 484.0 489.0 503.0 510.0 522.0 530.0 546.0 554.0 568.0 583.0 593.0 611.0 625.0 678.0 702.0 738.0 739.0 765.0 787.0 834.0 858.0 902.0 925.0 1015.0 1041.0 1098.0 1124.0 1166.0 1197.0 1263.0 1296.0 1318.0 1327.0 1357.0 1360.0 1358.0 1354.0 1346.0 1341.0 1324.0 1301.0 1265.0 1280.0 1316.0 1323.0 1340.0 1376.0 1373.0 1362.0 1355.0 1352.0 1338.0 1328.0 1318.0 1315.0 1311.0 1311.0 1312.0 1308.0 1304.0 1296.0 1311.0 1281.0 1249.0 1194.0 1216.0 1266.0 1262.0 1240.0 1255.0 1239.0 1217.0 1251.0 1269.0 1273.0 1259.0 1237.0 1243.0 1208.0 1191.0 1158.0 1135.0 1151.0 1156.0 1182.0 1203.0 1197.0 1186.0 1208.0 1269.0 1298.0 1329.0 1327.0 1286.0 1277.0 1252.0 1232.0 1193.0 1170.0 1096.0 1062.0 975.0 982.0 1060.0 1077.0 1077.0 1072.0 1040.0 1032.0 994.0 993.0 1015.0 1026.0 1041.0 1048.0 1069.0 1123.0 1150.0 1178.0 1180.0 1203.0 1204.0 1232.0 1237.0 1228.0 1238.0 1238.0 1251.0 1253.0 1244.0 1258.0 1263.0 1302.0 1311.0 1301.0 1287.0 1257.0 1235.0 1225.0 1226.0 1202.0 1215.0 1193.0 1177.0 1149.0 1136.0 1087.0 1067.0 1102.0 1139.0 1173.0 1194.0 1194.0 1167.0 1155.0 1126.0 1101.0 1061.0 1045.0 1001.0 991.0 990.0 983.0 941.0 930.0 907.0 901.0 890.0 873.0 828.0 807.0 800.0 790.0 770.0 755.0 709.0 684.0 642.0 628.0 599.0 584.0 568.0 562.0 546.0 540.0 529.0 511.0 506.0 490.0 478.0 455.0 452.0 454.0 440.0 401.0 381.0 349.0 331.0 320.0 326.0 341.0 337.0 313.0 304.0 270.0 256.0 251.0 249.0 250.0 249.0 234.0 233.0 253.0 259.0 262.0 262.0 261.0 262.0 262.0 264.0 266.0 267.0 265.0 267.0 269.0 272.0 275.0 281.0 283.0 286.0 290.0 294.0 299.0 305.0 313.0 312.0 313.0 315.0 317.0 335.0 349.0 360.0 372.0 378.0 371.0 348.0 342.0 337.0 334.0 335.0 334.0 336.0 329.0 330.0 331.0 333.0 337.0 338.0 338.0 340.0 338.0 337.0 340.0 341.0 341.0 336.0 344.0 340.0 336.0 338.0 343.0 343.0 344.0 345.0 346.0 343.0 346.0 346.0 345.0 344.0 345.0 344.0 345.0 346.0 347.0 349.0 348.0 347.0 346.0 343.0 342.0 341.0 342.0 344.0 341.0 341
814.0 854.0 820.0 825.0 838.0 921.0 960.0 1034.0 1071.0 1140.0 1176.0 1236.0 1267.0 1327.0 1365.0 1407.0 1386.0 1388.0 1413.0 1433.0 1469.0 1432.0 1452.0 1460.0 1476.0 1478.0 1503.0 1519.0 1519.0 1527.0 1553.0 1566.0 1564.0 1542.0 1485.0 1447.0 1396.0 1380.0 1343.0 1321.0 1257.0 1231.0 1183.0 1163.0 1117.0 1126.0 1148.0 1167.0 1185.0 1191.0 1164.0 1161.0 1100.0 1055.0 1096.0 1166.0 1174.0 1160.0 1082.0 1043.0 1023.0 1033.0 1062.0 1027.0 1013.0 995.0 999.0 978.0 957.0 868.0 828.0 734.0 691.0 685.0 704.0 709.0 740.0 716.0 688.0 746.0 757.0 761.0 784.0 835.0 855.0 880.0 838.0 811.0 809.0 804.0 849.0 881.0 958.0 958.0 944.0 867.0 879.0 813.0 775.0 701.0 684.0 686.0 661.0 617.0 593.0 592.0 602.0 629.0 656.0 706.0 698.0 638.0 602.0 609.0 632.0 651.0 665.0 664.0 654.0 631.0 617.0 587.0 574.0 571.0 587.0 592.0 592.0 580.0 571.0 561.0 559.0 561.0 550.0 552.0 549.0 521.0 524.0 517.0 539.0 529.0 481.0 448.0 426.0 425.0 424.0 423.0 430.0 445.0 458.0 465.0 474.0 479.0 493.0 498.0 526.0 529.0 529.0 532.0 545.0 553.0 571.0 580.0 596.0 605.0 629.0 649.0 692.0 733.0 748.0 764.0 785.0 828.0 850.0 897.0 934.0 1015.0 1048.0 1125.0 1146.0 1184.0 1205.0 1272.0 1310.0 1339.0 1345.0 1354.0 1351.0 1348.0 1346.0 1355.0 1346.0 1313.0 1279.0 1266.0 1274.0 1301.0 1308.0 1340.0 1358.0 1368.0 1363.0 1359.0 1346.0 1341.0 1345.0 1332.0 1316.0 1315.0 1318.0 1317.0 1310.0 1306.0 1305.0 1300.0 1262.0 1233.0 1200.0 1229.0 1272.0 1271.0 1250.0 1256.0 1249.0 1235.0 1231.0 1244.0 1264.0 1267.0 1260.0 1254.0 1220.0 1210.0 1132.0 1139.0 1177.0 1176.0 1188.0 1213.0 1232.0 1213.0 1211.0 1255.0 1286.0 1331.0 1337.0 1311.0 1299.0 1250.0 1222.0 1172.0 1144.0 1054.0 1030.0 975.0 994.0 1067.0 1095.0 1115.0 1102.0 1074.0 1063.0 1011.0 1007.0 1030.0 1036.0 1053.0 1074.0 1102.0 1126.0 1146.0 1159.0 1174.0 1172.0 1180.0 1221.0 1238.0 1258.0 1269.0 1271.0 1285.0 1285.0 1275.0 1295.0 1297.0 1321.0 1334.0 1319.0 1303.0 1268.0 1243.0 1245.0 1258.0 1232.0 1226.0 1201.0 1191.0 1157.0 1144.0 1102.0 1077.0 1109.0 1145.0 1192.0 1200.0 1207.0 1185.0 1141.0 1126.0 1087.0 1055.0 1037.0 1007.0 1005.0 977.0 974.0 951.0 951.0 932.0 925.0 908.0 894.0 856.0 843.0 834.0 819.0 800.0 781.0 736.0 715.0 662.0 641.0 605.0 603.0 573.0 560.0 543.0 537.0 522.0 517.0 507.0 502.0 489.0 462.0 449.0 452.0 442.0 395.0 369.0 336.0 331.0 319.0 315.0 309.0 310.0 312.0 303.0 276.0 259.0 251.0 250.0 242.0 236.0 237.0 245.0 260.0 259.0 261.0 262.0 261.0 261.0 262.0 262.0 267.0 267.0 265.0 266.0 269.0 272.0 274.0 282.0 283.0 285.0 289.0 299.0 299.0 304.0 308.0 308.0 311.0 320.0 333.0 353.0 357.0 356.0 359.0 364.0 354.0 346.0 338.0 331.0 329.0 332.0 334.0 328.0 325.0 327.0 329.0 332.0 333.0 334.0 335.0 337.0 336.0 334.0 342.0 338.0 339.0 332.0 337.0 334.0 334.0 336.0 342.0 340.0 341.0 342.0 340.0 341.0 343.0 344.0 342.0 343.0 342.0 343.0 342.0 342.0 342.0 344.0 345.0 343.0 342.0 341.0 341.0 341.0 342.0 341.0 341.0 338
788.0 785.0 792.0 829.0 871.0 948.0 978.0 1018.0 1054.0 1137.0 1172.0 1234.0 1266.0 1343.0 1381.0 1381.0 1359.0 1346.0 1353.0 1353.0 1372.0 1386.0 1416.0 1425.0 1433.0 1441.0 1466.0 1476.0 1479.0 1487.0 1514.0 1525.0 1554.0 1559.0 1521.0 1491.0 1446.0 1439.0 1374.0 1338.0 1289.0 1254.0 1176.0 1157.0 1120.0 1106.0 1091.0 1104.0 1123.0 1132.0 1101.0 1108.0 1068.0 1025.0 1047.0 1112.0 1043.0 1042.0 1011.0 1012.0 960.0 985.0 1015.0 979.0 963.0 964.0 974.0 963.0 946.0 883.0 842.0 754.0 719.0 663.0 663.0 656.0 682.0 676.0 675.0 725.0 716.0 730.0 758.0 794.0 825.0 856.0 817.0 768.0 766.0 764.0 790.0 858.0 894.0 894.0 956.0 943.0 886.0 847.0 761.0 713.0 726.0 712.0 681.0 625.0 610.0 586.0 580.0 595.0 616.0 661.0 665.0 633.0 606.0 594.0 601.0 630.0 634.0 639.0 640.0 633.0 622.0 619.0 613.0 606.0 613.0 595.0 578.0 552.0 543.0 532.0 532.0 529.0 525.0 488.0 487.0 486.0 494.0 492.0 510.0 516.0 465.0 435.0 425.0 427.0 425.0 425.0 439.0 461.0 478.0 482.0 498.0 506.0 515.0 523.0 544.0 557.0 559.0 559.0 564.0 563.0 572.0 582.0 602.0 611.0 629.0 642.0 675.0 692.0 720.0 736.0 779.0 846.0 865.0 922.0 956.0 1027.0 1061.0 1127.0 1150.0 1200.0 1227.0 1288.0 1315.0 1341.0 1347.0 1342.0 1342.0 1332.0 1329.0 1337.0 1336.0 1292.0 1275.0 1257.0 1266.0 1310.0 1327.0 1351.0 1369.0 1367.0 1372.0 1361.0 1360.0 1345.0 1354.0 1332.0 1323.0 1322.0 1321.0 1318.0 1315.0 1315.0 1298.0 1286.0 1232.0 1213.0 1223.0 1237.0 1281.0 1279.0 1267.0 1261.0 1275.0 1266.0 1251.0 1243.0 1259.0 1268.0 1264.0 1237.0 1170.0 1151.0 1145.0 1168.0 1194.0 1201.0 1204.0 1226.0 1265.0 1268.0 1250.0 1248.0 1278.0 1325.0 1339.0 1324.0 1304.0 1232.0 1196.0 1138.0 1098.0 1045.0 1024.0 995.0 1026.0 1078.0 1105.0 1126.0 1120.0 1098.0 1078.0 1020.0 1015.0 1059.0 1068.0 1079.0 1099.0 1146.0 1171.0 1178.0 1206.0 1212.0 1214.0 1188.0 1185.0 1224.0 1246.0 1282.0 1305.0 1324.0 1326.0 1317.0 1327.0 1333.0 1345.0 1358.0 1345.0 1325.0 1276.0 1256.0 1261.0 1263.0 1235.0 1221.0 1193.0 1181.0 1152.0 1136.0 1102.0 1096.0 1102.0 1131.0 1189.0 1198.0 1190.0 1173.0 1127.0 1107.0 1079.0 1065.0 1042.0 1046.0 1018.0 992.0 982.0 970.0 963.0 943.0 936.0 927.0 921.0 887.0 867.0 859.0 846.0 816.0 801.0 749.0 729.0 678.0 680.0 636.0 615.0 581.0 568.0 556.0 546.0 527.0 514.0 503.0 500.0 487.0 477.0 456.0 442.0 432.0 375.0 358.0 355.0 340.0 325.0 325.0 317.0 310.0 300.0 301.0 282.0 267.0 249.0 249.0 234.0 237.0 255.0 258.0 258.0 260.0 260.0 262.0 260.0 261.0 261.0 264.0 266.0 265.0 264.0 264.0 267.0 268.0 273.0 277.0 282.0 285.0 287.0 296.0 297.0 301.0 303.0 308.0 314.0 338.0 349.0 353.0 349.0 347.0 354.0 349.0 344.0 334.0 332.0 325.0 325.0 330.0 330.0 325.0 322.0 324.0 326.0 330.0 332.0 332.0 332.0 335.0 335.0 332.0 337.0 335.0 335.0 329.0 334.0 331.0 332.0 335.0 337.0 335.0 340.0 338.0 337.0 338.0 341.0 341.0 339.0 339.0 338.0 341.0 338.0 338.0 338.0 344.0 340.0 341.0 339.0 339.0 339.0 339.0 338.0 337.0 335.0 336
763.0 775.0 784.0 846.0 878.0 916.0 941.0 1007.0 1058.0 1144.0 1179.0 1240.0 1274.0 1341.0 1366.0 1347.0 1318.0 1309.0 1285.0 1318.0 1331.0 1340.0 1365.0 1388.0 1391.0 1407.0 1419.0 1429.0 1433.0 1445.0 1478.0 1496.0 1544.0 1568.0 1570.0 1547.0 1524.0 1495.0 1417.0 1380.0 1298.0 1261.0 1189.0 1173.0 1141.0 1134.0 1090.0 1071.0 1057.0 1060.0 1043.0 1044.0 1027.0 993.0 1011.0 1002.0 985.0 996.0 950.0 945.0 913.0 909.0 975.0 949.0 904.0 906.0 912.0 895.0 888.0 874.0 848.0 794.0 764.0 691.0 685.0 636.0 634.0 651.0 672.0 680.0 674.0 705.0 715.0 749.0 782.0 826.0 798.0 736.0 727.0 732.0 757.0 828.0 856.0 856.0 883.0 890.0 877.0 841.0 768.0 755.0 757.0 735.0 669.0 651.0 642.0 608.0 587.0 574.0 580.0 602.0 605.0 612.0 570.0 580.0 600.0 610.0 605.0 615.0 626.0 620.0 613.0 635.0 634.0 622.0 610.0 575.0 558.0 529.0 525.0 512.0 508.0 500.0 511.0 497.0 490.0 473.0 467.0 467.0 475.0 489.0 446.0 428.0 426.0 428.0 425.0 425.0 441.0 453.0 463.0 468.0 490.0 481.0 505.0 516.0 532.0 545.0 573.0 585.0 604.0 606.0 602.0 605.0 618.0 630.0 647.0 662.0 695.0 716.0 735.0 751.0 811.0 833.0 883.0 911.0 970.0 998.0 1055.0 1121.0 1152.0 1222.0 1266.0 1301.0 1309.0 1337.0 1349.0 1336.0 1333.0 1327.0 1317.0 1315.0 1299.0 1269.0 1262.0 1279.0 1281.0 1322.0 1349.0 1368.0 1373.0 1373.0 1374.0 1368.0 1361.0 1346.0 1349.0 1334.0 1339.0 1328.0 1323.0 1318.0 1317.0 1308.0 1296.0 1275.0 1219.0 1228.0 1248.0 1237.0 1270.0 1275.0 1283.0 1278.0 1295.0 1294.0 1270.0 1254.0 1259.0 1274.0 1254.0 1217.0 1190.0 1177.0 1149.0 1169.0 1202.0 1217.0 1229.0 1243.0 1282.0 1298.0 1296.0 1292.0 1290.0 1302.0 1335.0 1337.0 1292.0 1206.0 1169.0 1118.0 1089.0 1033.0 1010.0 1016.0 1050.0 1101.0 1120.0 1140.0 1132.0 1099.0 1076.0 1040.0 1029.0 1076.0 1101.0 1106.0 1123.0 1161.0 1204.0 1236.0 1230.0 1235.0 1234.0 1217.0 1205.0 1202.0 1231.0 1277.0 1294.0 1333.0 1353.0 1352.0 1349.0 1364.0 1371.0 1379.0 1369.0 1345.0 1324.0 1301.0 1294.0 1284.0 1236.0 1222.0 1208.0 1196.0 1170.0 1147.0 1132.0 1138.0 1107.0 1127.0 1184.0 1196.0 1180.0 1160.0 1117.0 1106.0 1069.0 1055.0 1059.0 1052.0 1026.0 1013.0 993.0 989.0 965.0 947.0 941.0 938.0 931.0 909.0 889.0 870.0 859.0 833.0 808.0 758.0 735.0 743.0 716.0 655.0 627.0 599.0 588.0 562.0 548.0 528.0 519.0 497.0 492.0 479.0 471.0 443.0 434.0 412.0 391.0 391.0 397.0 377.0 361.0 325.0 321.0 318.0 305.0 305.0 288.0 273.0 245.0 241.0 238.0 249.0 255.0 258.0 258.0 258.0 260.0 262.0 260.0 261.0 263.0 263.0 262.0 263.0 265.0 265.0 266.0 266.0 269.0 276.0 281.0 281.0 285.0 287.0 293.0 294.0 299.0 318.0 326.0 344.0 349.0 346.0 345.0 340.0 344.0 340.0 334.0 328.0 325.0 325.0 322.0 329.0 327.0 324.0 320.0 321.0 323.0 326.0 329.0 328.0 329.0 327.0 327.0 331.0 333.0 333.0 332.0 326.0 332.0 328.0 329.0 330.0 333.0 334.0 335.0 335.0 333.0 337.0 338.0 339.0 338.0 337.0 336.0 336.0 335.0 336.0 340.0 341.0 338.0 337.0 337.0 337.0 335.0 336.0 336.0 335.0 333.0 333
755.0 771.0 783.0 825.0 850.0 895.0 937.0 1038.0 1086.0 1158.0 1187.0 1236.0 1260.0 1316.0 1323.0 1301.0 1251.0 1247.0 1260.0 1284.0 1284.0 1299.0 1328.0 1345.0 1346.0 1364.0 1374.0 1384.0 1388.0 1416.0 1432.0 1477.0 1504.0 1559.0 1591.0 1574.0 1529.0 1523.0 1454.0 1400.0 1317.0 1276.0 1224.0 1198.0 1175.0 1165.0 1122.0 1102.0 1045.0 1026.0 994.0 984.0 969.0 952.0 914.0 920.0 930.0 950.0 899.0 890.0 874.0 873.0 937.0 903.0 846.0 824.0 846.0 840.0 823.0 821.0 819.0 809.0 740.0 675.0 654.0 630.0 621.0 637.0 633.0 630.0 639.0 665.0 665.0 702.0 731.0 786.0 774.0 701.0 692.0 723.0 752.0 806.0 803.0 803.0 826.0 829.0 843.0 834.0 802.0 804.0 759.0 721.0 698.0 691.0 668.0 647.0 604.0 598.0 572.0 568.0 568.0 556.0 553.0 573.0 585.0 586.0 582.0 602.0 612.0 600.0 606.0 640.0 647.0 614.0 598.0 557.0 552.0 551.0 554.0 536.0 552.0 543.0 542.0 528.0 526.0 505.0 491.0 461.0 454.0 465.0 459.0 426.0 426.0 429.0 427.0 426.0 442.0 450.0 463.0 494.0 483.0 479.0 513.0 522.0 546.0 561.0 580.0 595.0 631.0 647.0 648.0 646.0 650.0 669.0 692.0 704.0 720.0 737.0 787.0 801.0 838.0 858.0 902.0 924.0 980.0 1008.0 1071.0 1108.0 1171.0 1207.0 1286.0 1311.0 1325.0 1341.0 1349.0 1345.0 1343.0 1347.0 1338.0 1306.0 1282.0 1268.0 1284.0 1310.0 1306.0 1316.0 1340.0 1375.0 1374.0 1363.0 1363.0 1363.0 1357.0 1348.0 1348.0 1343.0 1346.0 1337.0 1329.0 1314.0 1308.0 1300.0 1293.0 1270.0 1241.0 1238.0 1267.0 1252.0 1250.0 1259.0 1284.0 1295.0 1312.0 1319.0 1289.0 1266.0 1265.0 1286.0 1242.0 1223.0 1221.0 1210.0 1153.0 1157.0 1185.0 1200.0 1240.0 1259.0 1294.0 1314.0 1336.0 1338.0 1321.0 1323.0 1338.0 1329.0 1265.0 1230.0 1190.0 1165.0 1088.0 1044.0 1010.0 1042.0 1066.0 1123.0 1144.0 1161.0 1147.0 1110.0 1093.0 1058.0 1038.0 1087.0 1123.0 1141.0 1151.0 1209.0 1225.0 1249.0 1242.0 1246.0 1248.0 1234.0 1223.0 1201.0 1216.0 1258.0 1273.0 1313.0 1338.0 1376.0 1371.0 1392.0 1404.0 1403.0 1401.0 1382.0 1341.0 1325.0 1319.0 1302.0 1260.0 1256.0 1230.0 1221.0 1190.0 1162.0 1165.0 1160.0 1126.0 1129.0 1176.0 1196.0 1183.0 1163.0 1123.0 1111.0 1078.0 1074.0 1057.0 1043.0 1018.0 1012.0 996.0 983.0 961.0 954.0 941.0 941.0 937.0 928.0 909.0 883.0 869.0 833.0 807.0 808.0 798.0 778.0 749.0 684.0 656.0 623.0 605.0 572.0 558.0 538.0 526.0 508.0 502.0 486.0 473.0 457.0 443.0 425.0 422.0 410.0 413.0 383.0 369.0 341.0 324.0 318.0 317.0 307.0 303.0 275.0 247.0 236.0 245.0 250.0 253.0 256.0 256.0 259.0 261.0 260.0 259.0 260.0 262.0 264.0 263.0 263.0 264.0 265.0 266.0 267.0 276.0 280.0 282.0 282.0 285.0 286.0 289.0 292.0 301.0 313.0 340.0 339.0 339.0 342.0 341.0 336.0 336.0 334.0 331.0 325.0 322.0 321.0 320.0 324.0 326.0 322.0 318.0 320.0 321.0 324.0 325.0 326.0 326.0 326.0 326.0 332.0 332.0 332.0 332.0 326.0 331.0 323.0 325.0 330.0 331.0 333.0 332.0 334.0 332.0 334.0 336.0 336.0 333.0 331.0 331.0 332.0 332.0 334.0 340.0 335.0 334.0 334.0 336.0 335.0 334.0 332.0 333.0 332.0 333.0 333
749.0 757.0 776.0 828.0 854.0 934.0 972.0 1056.0 1091.0 1129.0 1155.0 1212.0 1248.0 1283.0 1280.0 1211.0 1211.0 1217.0 1230.0 1247.0 1234.0 1272.0 1299.0 1299.0 1294.0 1320.0 1330.0 1352.0 1361.0 1398.0 1417.0 1465.0 1494.0 1565.0 1588.0 1536.0 1510.0 1496.0 1500.0 1435.0 1356.0 1313.0 1267.0 1239.0 1202.0 1188.0 1148.0 1130.0 1080.0 1066.0 1026.0 1009.0 1012.0 986.0 913.0 894.0 873.0 888.0 843.0 849.0 835.0 850.0 892.0 856.0 804.0 781.0 778.0 774.0 761.0 765.0 760.0 705.0 680.0 653.0 628.0 637.0 638.0 619.0 620.0 618.0 614.0 613.0 611.0 660.0 691.0 736.0 735.0 671.0 674.0 749.0 776.0 757.0 748.0 748.0 771.0 772.0 796.0 823.0 861.0 843.0 772.0 755.0 737.0 721.0 665.0 640.0 638.0 633.0 599.0 590.0 598.0 583.0 553.0 549.0 566.0 572.0 583.0 599.0 596.0 598.0 609.0 644.0 642.0 605.0 587.0 568.0 577.0 581.0 578.0 590.0 579.0 574.0 571.0 561.0 556.0 535.0 520.0 481.0 459.0 444.0 442.0 429.0 425.0 426.0 427.0 429.0 441.0 470.0 505.0 528.0 509.0 493.0 502.0 512.0 535.0 554.0 585.0 602.0 644.0 664.0 690.0 694.0 692.0 710.0 737.0 748.0 766.0 803.0 810.0 826.0 864.0 883.0 928.0 951.0 1001.0 1029.0 1096.0 1128.0 1192.0 1234.0 1297.0 1317.0 1331.0 1342.0 1345.0 1351.0 1347.0 1325.0 1318.0 1297.0 1274.0 1285.0 1310.0 1340.0 1344.0 1322.0 1323.0 1358.0 1362.0 1360.0 1355.0 1356.0 1356.0 1355.0 1354.0 1349.0 1348.0 1326.0 1320.0 1313.0 1304.0 1296.0 1291.0 1269.0 1247.0 1231.0 1259.0 1278.0 1259.0 1257.0 1272.0 1307.0 1320.0 1335.0 1294.0 1301.0 1313.0 1297.0 1257.0 1234.0 1246.0 1229.0 1166.0 1172.0 1190.0 1201.0 1226.0 1252.0 1300.0 1322.0 1363.0 1369.0 1355.0 1348.0 1346.0 1330.0 1280.0 1268.0 1211.0 1165.0 1086.0 1046.0 1033.0 1052.0 1099.0 1111.0 1140.0 1175.0 1173.0 1140.0 1117.0 1076.0 1057.0 1083.0 1114.0 1175.0 1202.0 1220.0 1228.0 1249.0 1254.0 1259.0 1263.0 1254.0 1244.0 1221.0 1211.0 1230.0 1245.0 1293.0 1321.0 1368.0 1385.0 1414.0 1424.0 1436.0 1427.0 1389.0 1368.0 1351.0 1343.0 1303.0 1290.0 1289.0 1258.0 1242.0 1202.0 1182.0 1191.0 1172.0 1166.0 1153.0 1169.0 1187.0 1184.0 1174.0 1138.0 1121.0 1090.0 1081.0 1048.0 1041.0 1034.0 1034.0 1010.0 990.0 961.0 951.0 947.0 941.0 937.0 931.0 919.0 906.0 872.0 856.0 868.0 831.0 826.0 796.0 772.0 715.0 695.0 645.0 621.0 590.0 576.0 554.0 538.0 525.0 517.0 491.0 484.0 468.0 458.0 444.0 453.0 442.0 429.0 398.0 384.0 369.0 350.0 316.0 315.0 307.0 305.0 277.0 261.0 233.0 237.0 250.0 254.0 254.0 258.0 259.0 258.0 259.0 261.0 260.0 262.0 264.0 262.0 264.0 264.0 265.0 269.0 273.0 279.0 279.0 279.0 281.0 282.0 284.0 287.0 289.0 304.0 319.0 334.0 333.0 333.0 336.0 334.0 336.0 330.0 330.0 328.0 323.0 322.0 318.0 317.0 320.0 321.0 321.0 316.0 318.0 318.0 321.0 319.0 320.0 321.0 323.0 323.0 331.0 330.0 327.0 327.0 320.0 324.0 321.0 321.0 328.0 326.0 330.0 330.0 331.0 329.0 332.0 333.0 330.0 329.0 330.0 331.0 332.0 331.0 334.0 333.0 333.0 331.0 332.0 332.0 331.0 332.0 330.0 332.0 331.0 331.0 331
742.0 748.0 773.0 799.0 874.0 909.0 977.0 1011.0 1075.0 1117.0 1153.0 1221.0 1242.0 1244.0 1182.0 1168.0 1166.0 1184.0 1193.0 1204.0 1191.0 1242.0 1256.0 1256.0 1250.0 1282.0 1296.0 1325.0 1342.0 1384.0 1410.0 1465.0 1515.0 1578.0 1569.0 1508.0 1479.0 1455.0 1472.0 1473.0 1429.0 1379.0 1344.0 1278.0 1246.0 1211.0 1194.0 1178.0 1124.0 1102.0 1066.0 1094.0 1019.0 994.0 933.0 903.0 844.0 836.0 807.0 808.0 807.0 827.0 837.0 804.0 758.0 740.0 724.0 715.0 706.0 685.0 664.0 657.0 635.0 631.0 660.0 684.0 690.0 673.0 667.0 673.0 645.0 629.0 610.0 622.0 644.0 690.0 705.0 648.0 653.0 729.0 750.0 715.0 697.0 697.0 716.0 718.0 767.0 813.0 884.0 869.0 821.0 817.0 770.0 741.0 687.0 660.0 680.0 666.0 676.0 666.0 631.0 603.0 570.0 554.0 549.0 562.0 582.0 587.0 585.0 591.0 619.0 647.0 653.0 619.0 598.0 592.0 602.0 632.0 621.0 607.0 602.0 595.0 591.0 577.0 558.0 527.0 506.0 470.0 454.0 440.0 438.0 430.0 427.0 427.0 428.0 438.0 470.0 492.0 506.0 529.0 531.0 517.0 504.0 525.0 540.0 557.0 586.0 607.0 646.0 668.0 706.0 721.0 738.0 749.0 778.0 816.0 813.0 820.0 837.0 855.0 893.0 911.0 951.0 978.0 1031.0 1054.0 1111.0 1145.0 1215.0 1250.0 1312.0 1330.0 1334.0 1338.0 1338.0 1325.0 1326.0 1320.0 1310.0 1298.0 1288.0 1273.0 1295.0 1341.0 1362.0 1349.0 1338.0 1342.0 1356.0 1367.0 1358.0 1357.0 1358.0 1354.0 1346.0 1349.0 1340.0 1321.0 1315.0 1311.0 1305.0 1289.0 1285.0 1256.0 1235.0 1252.0 1277.0 1294.0 1277.0 1259.0 1271.0 1310.0 1332.0 1345.0 1348.0 1329.0 1340.0 1309.0 1265.0 1248.0 1266.0 1241.0 1184.0 1197.0 1202.0 1210.0 1232.0 1246.0 1296.0 1326.0 1375.0 1390.0 1382.0 1380.0 1387.0 1364.0 1322.0 1300.0 1216.0 1164.0 1083.0 1040.0 1061.0 1080.0 1129.0 1148.0 1149.0 1156.0 1191.0 1178.0 1135.0 1119.0 1075.0 1086.0 1100.0 1154.0 1182.0 1200.0 1210.0 1232.0 1244.0 1274.0 1279.0 1277.0 1275.0 1252.0 1240.0 1234.0 1232.0 1274.0 1305.0 1354.0 1377.0 1396.0 1415.0 1432.0 1430.0 1408.0 1391.0 1373.0 1350.0 1310.0 1314.0 1319.0 1299.0 1261.0 1238.0 1208.0 1209.0 1194.0 1196.0 1188.0 1175.0 1191.0 1194.0 1175.0 1140.0 1123.0 1084.0 1071.0 1061.0 1061.0 1053.0 1040.0 1010.0 996.0 964.0 947.0 948.0 944.0 938.0 934.0 930.0 919.0 917.0 911.0 885.0 865.0 850.0 834.0 790.0 750.0 726.0 668.0 647.0 617.0 599.0 563.0 549.0 529.0 521.0 505.0 499.0 480.0 485.0 466.0 460.0 454.0 446.0 407.0 393.0 386.0 376.0 330.0 316.0 303.0 299.0 275.0 262.0 234.0 238.0 249.0 252.0 255.0 256.0 259.0 260.0 259.0 260.0 261.0 263.0 264.0 269.0 269.0 272.0 274.0 277.0 276.0 277.0 279.0 277.0 277.0 278.0 281.0 285.0 287.0 299.0 316.0 333.0 330.0 327.0 329.0 331.0 331.0 329.0 328.0 325.0 323.0 323.0 319.0 318.0 322.0 319.0 318.0 313.0 313.0 314.0 315.0 320.0 317.0 318.0 319.0 321.0 327.0 325.0 322.0 324.0 318.0 321.0 320.0 320.0 325.0 323.0 326.0 328.0 328.0 325.0 329.0 326.0 326.0 327.0 327.0 326.0 329.0 331.0 333.0 329.0 329.0 329.0 329.0 331.0 329.0 329.0 330.0 332.0 330.0 329.0 331
732.0 740.0 775.0 803.0 864.0 893.0 959.0 991.0 1052.0 1091.0 1173.0 1200.0 1182.0 1159.0 1137.0 1121.0 1127.0 1148.0 1149.0 1161.0 1155.0 1205.0 1211.0 1209.0 1222.0 1251.0 1268.0 1304.0 1325.0 1382.0 1418.0 1496.0 1540.0 1585.0 1553.0 1484.0 1454.0 1421.0 1443.0 1478.0 1468.0 1401.0 1355.0 1263.0 1227.0 1191.0 1188.0 1171.0 1170.0 1118.0 1114.0 1101.0 1034.0 998.0 939.0 911.0 858.0 845.0 832.0 806.0 780.0 779.0 776.0 756.0 747.0 743.0 734.0 722.0 692.0 677.0 648.0 639.0 643.0 659.0 704.0 724.0 742.0 726.0 718.0 726.0 688.0 664.0 617.0 600.0 601.0 608.0 663.0 608.0 639.0 701.0 710.0 677.0 657.0 657.0 677.0 702.0 784.0 827.0 864.0 878.0 869.0 856.0 801.0 771.0 709.0 685.0 713.0 733.0 703.0 684.0 645.0 618.0 580.0 560.0 539.0 549.0 575.0 576.0 588.0 604.0 624.0 635.0 659.0 649.0 617.0 615.0 644.0 628.0 606.0 587.0 584.0 572.0 568.0 565.0 543.0 506.0 488.0 454.0 451.0 463.0 444.0 437.0 436.0 426.0 430.0 467.0 472.0 472.0 477.0 493.0 503.0 522.0 522.0 525.0 534.0 571.0 586.0 615.0 632.0 671.0 693.0 733.0 765.0 781.0 831.0 843.0 837.0 840.0 874.0 895.0 925.0 943.0 973.0 994.0 1046.0 1068.0 1117.0 1145.0 1215.0 1248.0 1307.0 1327.0 1335.0 1335.0 1335.0 1332.0 1330.0 1323.0 1325.0 1317.0 1304.0 1280.0 1292.0 1321.0 1362.0 1375.0 1361.0 1349.0 1363.0 1367.0 1362.0 1357.0 1355.0 1338.0 1339.0 1335.0 1326.0 1320.0 1315.0 1304.0 1301.0 1279.0 1274.0 1245.0 1232.0 1282.0 1299.0 1304.0 1288.0 1276.0 1270.0 1308.0 1314.0 1348.0 1353.0 1357.0 1363.0 1323.0 1290.0 1277.0 1289.0 1251.0 1196.0 1217.0 1237.0 1231.0 1251.0 1265.0 1297.0 1323.0 1375.0 1397.0 1422.0 1431.0 1409.0 1389.0 1331.0 1297.0 1213.0 1166.0 1078.0 1036.0 1080.0 1108.0 1156.0 1179.0 1179.0 1174.0 1199.0 1199.0 1166.0 1156.0 1141.0 1107.0 1123.0 1140.0 1170.0 1204.0 1225.0 1251.0 1250.0 1270.0 1284.0 1305.0 1309.0 1287.0 1286.0 1258.0 1245.0 1275.0 1300.0 1333.0 1342.0 1391.0 1407.0 1425.0 1433.0 1432.0 1420.0 1385.0 1365.0 1325.0 1331.0 1335.0 1314.0 1276.0 1252.0 1239.0 1249.0 1228.0 1218.0 1217.0 1212.0 1206.0 1189.0 1165.0 1128.0 1112.0 1084.0 1081.0 1073.0 1066.0 1052.0 1041.0 1008.0 985.0 951.0 936.0 935.0 938.0 934.0 933.0 925.0 935.0 935.0 927.0 890.0 876.0 859.0 839.0 808.0 797.0 757.0 727.0 681.0 665.0 621.0 579.0 562.0 543.0 533.0 521.0 514.0 506.0 498.0 475.0 468.0 459.0 447.0 411.0 397.0 389.0 384.0 355.0 336.0 304.0 298.0 271.0 260.0 237.0 237.0 249.0 251.0 253.0 256.0 258.0 259.0 260.0 262.0 268.0 267.0 270.0 274.0 273.0 267.0 265.0 266.0 269.0 273.0 276.0 275.0 275.0 277.0 279.0 278.0 278.0 289.0 305.0 329.0 326.0 317.0 325.0 327.0 325.0 325.0 324.0 323.0 323.0 319.0 316.0 313.0 312.0 312.0 314.0 315.0 309.0 309.0 310.0 315.0 315.0 317.0 317.0 318.0 323.0 323.0 316.0 321.0 316.0 318.0 317.0 319.0 323.0 323.0 324.0 325.0 326.0 324.0 323.0 322.0 324.0 324.0 327.0 326.0 328.0 329.0 328.0 327.0 327.0 328.0 329.0 328.0 328.0 327.0 328.0 328.0 328.0 330.0 345
728.0 739.0 772.0 798.0 846.0 875.0 931.0 965.0 1043.0 1088.0 1163.0 1157.0 1154.0 1135.0 1104.0 1089.0 1089.0 1102.0 1096.0 1116.0 1121.0 1168.0 1169.0 1171.0 1194.0 1232.0 1249.0 1293.0 1323.0 1399.0 1434.0 1510.0 1557.0 1570.0 1532.0 1467.0 1433.0 1396.0 1415.0 1449.0 1456.0 1387.0 1332.0 1236.0 1187.0 1129.0 1130.0 1125.0 1086.0 1071.0 1064.0 1066.0 1065.0 1025.0 998.0 939.0 893.0 889.0 848.0 826.0 798.0 789.0 780.0 780.0 792.0 786.0 714.0 691.0 657.0 650.0 652.0 665.0 684.0 699.0 734.0 753.0 787.0 775.0 740.0 722.0 661.0 637.0 624.0 615.0 595.0 595.0 586.0 585.0 606.0 626.0 653.0 648.0 631.0 631.0 653.0 725.0 794.0 800.0 804.0 836.0 854.0 856.0 835.0 796.0 731.0 772.0 790.0 772.0 721.0 704.0 653.0 630.0 586.0 564.0 536.0 538.0 571.0 572.0 590.0 608.0 631.0 642.0 661.0 658.0 653.0 657.0 632.0 615.0 592.0 575.0 553.0 542.0 535.0 543.0 534.0 491.0 475.0 464.0 478.0 473.0 441.0 441.0 434.0 433.0 442.0 456.0 464.0 475.0 482.0 492.0 495.0 507.0 521.0 544.0 553.0 563.0 574.0 600.0 620.0 658.0 678.0 723.0 731.0 781.0 801.0 840.0 863.0 872.0 898.0 918.0 948.0 963.0 995.0 1009.0 1057.0 1086.0 1130.0 1150.0 1214.0 1248.0 1306.0 1323.0 1342.0 1342.0 1340.0 1344.0 1337.0 1337.0 1331.0 1319.0 1290.0 1272.0 1290.0 1306.0 1338.0 1355.0 1368.0 1370.0 1363.0 1359.0 1356.0 1353.0 1345.0 1335.0 1330.0 1320.0 1315.0 1312.0 1311.0 1307.0 1304.0 1277.0 1266.0 1243.0 1237.0 1293.0 1312.0 1307.0 1295.0 1301.0 1294.0 1293.0 1301.0 1332.0 1347.0 1376.0 1374.0 1329.0 1303.0 1306.0 1320.0 1259.0 1221.0 1234.0 1253.0 1275.0 1269.0 1278.0 1319.0 1332.0 1370.0 1401.0 1432.0 1436.0 1400.0 1372.0 1314.0 1280.0 1197.0 1158.0 1060.0 1036.0 1093.0 1127.0 1187.0 1207.0 1211.0 1205.0 1210.0 1218.0 1210.0 1198.0 1149.0 1122.0 1146.0 1174.0 1204.0 1201.0 1225.0 1243.0 1275.0 1291.0 1289.0 1321.0 1332.0 1322.0 1319.0 1278.0 1265.0 1271.0 1277.0 1301.0 1335.0 1390.0 1411.0 1428.0 1438.0 1448.0 1440.0 1397.0 1374.0 1342.0 1341.0 1345.0 1328.0 1290.0 1270.0 1266.0 1274.0 1256.0 1245.0 1252.0 1240.0 1200.0 1188.0 1166.0 1149.0 1122.0 1102.0 1092.0 1067.0 1051.0 1031.0 1024.0 998.0 985.0 967.0 948.0 911.0 924.0 918.0 899.0 916.0 929.0 929.0 920.0 891.0 883.0 868.0 848.0 825.0 811.0 779.0 752.0 724.0 709.0 650.0 619.0 583.0 568.0 551.0 559.0 543.0 514.0 501.0 477.0 464.0 455.0 444.0 416.0 403.0 385.0 385.0 361.0 339.0 306.0 302.0 271.0 259.0 235.0 237.0 249.0 251.0 252.0 256.0 256.0 258.0 261.0 272.0 275.0 274.0 271.0 270.0 265.0 260.0 258.0 259.0 261.0 265.0 267.0 271.0 272.0 275.0 275.0 276.0 278.0 281.0 296.0 320.0 318.0 311.0 321.0 326.0 324.0 323.0 323.0 323.0 322.0 318.0 317.0 312.0 310.0 313.0 308.0 314.0 311.0 306.0 306.0 311.0 314.0 314.0 316.0 319.0 318.0 319.0 315.0 317.0 313.0 312.0 316.0 319.0 319.0 320.0 322.0 320.0 320.0 320.0 319.0 321.0 322.0 323.0 324.0 322.0 327.0 330.0 325.0 325.0 325.0 325.0 327.0 326.0 326.0 325.0 328.0 326.0 326.0 338.0 342
722.0 736.0 774.0 802.0 847.0 880.0 951.0 987.0 1053.0 1070.0 1096.0 1103.0 1117.0 1102.0 1063.0 1055.0 1046.0 1050.0 1048.0 1056.0 1086.0 1105.0 1118.0 1134.0 1188.0 1228.0 1254.0 1318.0 1364.0 1434.0 1464.0 1536.0 1574.0 1563.0 1531.0 1460.0 1424.0 1374.0 1382.0 1408.0 1427.0 1365.0 1319.0 1223.0 1172.0 1093.0 1065.0 1032.0 1030.0 1033.0 1021.0 1012.0 1013.0 998.0 995.0 977.0 958.0 942.0 917.0 868.0 843.0 827.0 816.0 802.0 772.0 719.0 680.0 659.0 661.0 666.0 692.0 706.0 721.0 735.0 773.0 795.0 825.0 795.0 719.0 693.0 638.0 641.0 656.0 649.0 652.0 634.0 606.0 595.0 580.0 580.0 597.0 603.0 632.0 632.0 678.0 748.0 762.0 732.0 733.0 796.0 790.0 815.0 855.0 833.0 822.0 815.0 800.0 779.0 738.0 714.0 660.0 635.0 582.0 562.0 541.0 533.0 564.0 570.0 582.0 592.0 611.0 625.0 652.0 666.0 660.0 652.0 629.0 608.0 571.0 558.0 530.0 523.0 509.0 507.0 513.0 478.0 467.0 491.0 504.0 459.0 434.0 440.0 443.0 436.0 447.0 462.0 468.0 479.0 487.0 503.0 508.0 512.0 516.0 534.0 555.0 568.0 569.0 589.0 603.0 638.0 656.0 695.0 722.0 773.0 791.0 830.0 852.0 891.0 907.0 931.0 939.0 971.0 1010.0 1033.0 1095.0 1121.0 1159.0 1176.0 1221.0 1253.0 1313.0 1330.0 1338.0 1338.0 1345.0 1350.0 1350.0 1349.0 1327.0 1306.0 1273.0 1270.0 1311.0 1315.0 1316.0 1330.0 1352.0 1367.0 1354.0 1348.0 1340.0 1345.0 1337.0 1339.0 1332.0 1324.0 1313.0 1307.0 1302.0 1293.0 1292.0 1275.0 1259.0 1241.0 1242.0 1277.0 1296.0 1303.0 1312.0 1326.0 1320.0 1319.0 1321.0 1335.0 1350.0 1386.0 1376.0 1337.0 1327.0 1342.0 1348.0 1281.0 1241.0 1255.0 1280.0 1322.0 1316.0 1301.0 1312.0 1370.0 1387.0 1415.0 1423.0 1411.0 1368.0 1337.0 1277.0 1244.0 1168.0 1135.0 1051.0 1045.0 1103.0 1136.0 1207.0 1237.0 1241.0 1231.0 1225.0 1245.0 1221.0 1206.0 1159.0 1142.0 1147.0 1184.0 1241.0 1236.0 1230.0 1251.0 1286.0 1306.0 1306.0 1307.0 1339.0 1352.0 1346.0 1306.0 1297.0 1321.0 1318.0 1304.0 1326.0 1370.0 1392.0 1432.0 1445.0 1457.0 1449.0 1409.0 1396.0 1370.0 1362.0 1355.0 1340.0 1298.0 1282.0 1301.0 1302.0 1305.0 1290.0 1260.0 1240.0 1195.0 1169.0 1153.0 1145.0 1125.0 1108.0 1079.0 1065.0 1034.0 1018.0 1011.0 1008.0 1004.0 976.0 955.0 901.0 882.0 862.0 862.0 892.0 906.0 913.0 901.0 886.0 874.0 863.0 853.0 827.0 814.0 790.0 776.0 757.0 737.0 676.0 649.0 605.0 590.0 578.0 576.0 561.0 550.0 508.0 481.0 467.0 444.0 434.0 422.0 414.0 380.0 379.0 358.0 336.0 306.0 298.0 267.0 256.0 237.0 232.0 248.0 250.0 252.0 254.0 257.0 260.0 271.0 275.0 276.0 276.0 266.0 264.0 257.0 258.0 258.0 258.0 259.0 262.0 264.0 270.0 265.0 268.0 269.0 276.0 272.0 276.0 283.0 298.0 294.0 308.0 321.0 324.0 323.0 323.0 322.0 321.0 322.0 319.0 317.0 313.0 310.0 305.0 307.0 311.0 308.0 303.0 304.0 307.0 312.0 311.0 310.0 314.0 314.0 314.0 316.0 315.0 308.0 308.0 318.0 318.0 317.0 317.0 316.0 318.0 318.0 317.0 318.0 318.0 316.0 318.0 321.0 321.0 325.0 324.0 323.0 323.0 323.0 325.0 323.0 324.0 323.0 321.0 326.0 320.0 327.0 331.0 336
713.0 720.0 756.0 781.0 855.0 902.0 975.0 999.0 1028.0 1057.0 1043.0 1046.0 1067.0 1059.0 1024.0 1015.0 1006.0 1004.0 1017.0 1032.0 1081.0 1097.0 1139.0 1172.0 1233.0 1257.0 1339.0 1334.0 1390.0 1416.0 1481.0 1555.0 1578.0 1537.0 1511.0 1458.0 1440.0 1364.0 1347.0 1378.0 1403.0 1369.0 1312.0 1228.0 1185.0 1105.0 1090.0 1045.0 1012.0 995.0 982.0 964.0 961.0 947.0 945.0 944.0 949.0 975.0 961.0 913.0 896.0 852.0 823.0 778.0 726.0 684.0 670.0 665.0 690.0 698.0 718.0 747.0 771.0 779.0 819.0 832.0 810.0 784.0 708.0 676.0 652.0 672.0 732.0 744.0 710.0 680.0 640.0 626.0 592.0 581.0 572.0 578.0 633.0 633.0 667.0 719.0 718.0 674.0 691.0 755.0 743.0 778.0 820.0 888.0 880.0 846.0 799.0 775.0 741.0 716.0 657.0 633.0 587.0 567.0 538.0 530.0 556.0 565.0 574.0 585.0 611.0 623.0 647.0 643.0 645.0 632.0 634.0 621.0 581.0 567.0 554.0 546.0 521.0 505.0 486.0 478.0 478.0 495.0 506.0 476.0 432.0 441.0 440.0 437.0 450.0 478.0 488.0 501.0 512.0 537.0 538.0 527.0 525.0 533.0 543.0 554.0 560.0 578.0 589.0 613.0 628.0 683.0 713.0 767.0 789.0 830.0 854.0 899.0 919.0 951.0 959.0 989.0 1012.0 1062.0 1090.0 1148.0 1166.0 1204.0 1238.0 1289.0 1310.0 1323.0 1332.0 1327.0 1337.0 1351.0 1358.0 1351.0 1312.0 1290.0 1268.0 1285.0 1333.0 1343.0 1326.0 1340.0 1348.0 1363.0 1362.0 1354.0 1337.0 1339.0 1330.0 1331.0 1329.0 1323.0 1314.0 1304.0 1292.0 1290.0 1290.0 1267.0 1255.0 1257.0 1266.0 1254.0 1269.0 1302.0 1291.0 1294.0 1298.0 1331.0 1346.0 1359.0 1371.0 1396.0 1384.0 1354.0 1351.0 1372.0 1367.0 1292.0 1259.0 1286.0 1314.0 1354.0 1361.0 1346.0 1379.0 1390.0 1405.0 1429.0 1418.0 1379.0 1355.0 1303.0 1275.0 1208.0 1145.0 1114.0 1062.0 1054.0 1118.0 1152.0 1216.0 1252.0 1272.0 1276.0 1266.0 1264.0 1243.0 1224.0 1184.0 1178.0 1161.0 1188.0 1253.0 1267.0 1253.0 1257.0 1309.0 1324.0 1329.0 1327.0 1342.0 1357.0 1372.0 1376.0 1372.0 1368.0 1355.0 1327.0 1321.0 1350.0 1376.0 1427.0 1447.0 1461.0 1456.0 1435.0 1425.0 1399.0 1389.0 1365.0 1343.0 1309.0 1312.0 1349.0 1341.0 1316.0 1298.0 1259.0 1236.0 1190.0 1162.0 1141.0 1130.0 1111.0 1102.0 1078.0 1062.0 1055.0 1054.0 1032.0 1023.0 1008.0 976.0 957.0 918.0 900.0 839.0 830.0 861.0 880.0 890.0 876.0 869.0 874.0 860.0 850.0 832.0 829.0 805.0 792.0 760.0 741.0 700.0 678.0 651.0 627.0 582.0 571.0 571.0 564.0 523.0 507.0 475.0 458.0 424.0 413.0 401.0 368.0 365.0 343.0 334.0 307.0 294.0 263.0 253.0 240.0 230.0 243.0 248.0 251.0 251.0 257.0 261.0 273.0 274.0 275.0 272.0 260.0 258.0 258.0 256.0 258.0 258.0 258.0 261.0 262.0 263.0 263.0 264.0 267.0 270.0 268.0 268.0 273.0 283.0 285.0 311.0 322.0 323.0 321.0 322.0 320.0 318.0 318.0 317.0 317.0 317.0 317.0 304.0 301.0 306.0 307.0 302.0 303.0 304.0 311.0 307.0 308.0 310.0 311.0 309.0 315.0 309.0 308.0 309.0 317.0 317.0 312.0 311.0 316.0 319.0 317.0 313.0 317.0 318.0 319.0 318.0 318.0 320.0 321.0 318.0 321.0 322.0 323.0 324.0 322.0 322.0 320.0 319.0 321.0 321.0 328.0 330.0 332
711.0 712.0 735.0 765.0 854.0 902.0 938.0 934.0 1023.0 1056.0 1011.0 1004.0 1010.0 1011.0 985.0 980.0 973.0 989.0 1046.0 1074.0 1152.0 1166.0 1216.0 1244.0 1300.0 1398.0 1392.0 1389.0 1435.0 1458.0 1497.0 1522.0 1557.0 1532.0 1463.0 1439.0 1409.0 1360.0 1329.0 1359.0 1387.0 1385.0 1331.0 1234.0 1184.0 1088.0 1070.0 1041.0 1013.0 983.0 957.0 919.0 909.0 897.0 896.0 894.0 897.0 934.0 925.0 916.0 929.0 865.0 812.0 746.0 708.0 669.0 676.0 699.0 710.0 734.0 725.0 771.0 807.0 832.0 851.0 834.0 771.0 748.0 686.0 662.0 679.0 739.0 778.0 786.0 750.0 722.0 679.0 670.0 628.0 611.0 589.0 583.0 598.0 598.0 631.0 667.0 673.0 639.0 669.0 696.0 693.0 767.0 812.0 876.0 882.0 847.0 828.0 784.0 769.0 720.0 666.0 641.0 602.0 582.0 542.0 527.0 548.0 560.0 573.0 587.0 606.0 617.0 624.0 617.0 635.0 615.0 618.0 623.0 606.0 596.0 580.0 566.0 533.0 508.0 481.0 483.0 505.0 522.0 491.0 439.0 434.0 435.0 438.0 438.0 454.0 468.0 503.0 531.0 536.0 550.0 552.0 559.0 557.0 550.0 551.0 561.0 569.0 589.0 629.0 645.0 647.0 684.0 713.0 765.0 789.0 831.0 852.0 900.0 921.0 959.0 975.0 1008.0 1033.0 1086.0 1119.0 1167.0 1182.0 1236.0 1260.0 1308.0 1313.0 1318.0 1325.0 1326.0 1334.0 1353.0 1351.0 1338.0 1302.0 1283.0 1277.0 1302.0 1340.0 1348.0 1336.0 1348.0 1364.0 1355.0 1368.0 1360.0 1337.0 1334.0 1329.0 1326.0 1323.0 1317.0 1309.0 1299.0 1294.0 1294.0 1309.0 1299.0 1258.0 1260.0 1283.0 1261.0 1252.0 1261.0 1264.0 1272.0 1287.0 1325.0 1342.0 1373.0 1390.0 1415.0 1405.0 1379.0 1375.0 1386.0 1365.0 1286.0 1275.0 1313.0 1336.0 1381.0 1414.0 1426.0 1416.0 1421.0 1433.0 1440.0 1425.0 1378.0 1348.0 1295.0 1264.0 1196.0 1164.0 1129.0 1106.0 1072.0 1126.0 1156.0 1220.0 1257.0 1291.0 1294.0 1286.0 1288.0 1258.0 1239.0 1206.0 1197.0 1180.0 1186.0 1242.0 1270.0 1288.0 1282.0 1304.0 1316.0 1330.0 1338.0 1351.0 1364.0 1362.0 1361.0 1375.0 1387.0 1385.0 1378.0 1359.0 1351.0 1365.0 1393.0 1439.0 1459.0 1463.0 1455.0 1446.0 1419.0 1403.0 1367.0 1343.0 1334.0 1371.0 1361.0 1346.0 1314.0 1297.0 1259.0 1237.0 1202.0 1182.0 1161.0 1146.0 1124.0 1120.0 1100.0 1087.0 1076.0 1071.0 1039.0 1026.0 997.0 981.0 942.0 918.0 892.0 865.0 808.0 826.0 850.0 864.0 847.0 838.0 861.0 859.0 852.0 840.0 823.0 807.0 798.0 771.0 758.0 734.0 718.0 678.0 647.0 603.0 582.0 554.0 547.0 528.0 516.0 478.0 460.0 421.0 401.0 375.0 357.0 345.0 337.0 328.0 305.0 290.0 252.0 251.0 246.0 238.0 239.0 247.0 251.0 251.0 261.0 269.0 275.0 275.0 271.0 262.0 258.0 257.0 258.0 256.0 256.0 255.0 256.0 257.0 260.0 261.0 262.0 260.0 266.0 266.0 264.0 264.0 265.0 271.0 280.0 305.0 321.0 322.0 321.0 321.0 319.0 316.0 313.0 317.0 316.0 317.0 315.0 314.0 306.0 302.0 305.0 300.0 300.0 301.0 309.0 306.0 305.0 305.0 305.0 308.0 310.0 305.0 306.0 310.0 311.0 311.0 312.0 307.0 312.0 316.0 313.0 311.0 313.0 314.0 318.0 317.0 315.0 321.0 318.0 316.0 319.0 322.0 322.0 321.0 318.0 318.0 316.0 316.0 319.0 323.0 325.0 327.0 336
728.0 714.0 717.0 755.0 795.0 826.0 887.0 941.0 1017.0 1016.0 991.0 969.0 960.0 956.0 948.0 950.0 969.0 1005.0 1078.0 1119.0 1198.0 1227.0 1280.0 1357.0 1421.0 1443.0 1445.0 1436.0 1448.0 1445.0 1471.0 1494.0 1517.0 1492.0 1417.0 1393.0 1357.0 1353.0 1312.0 1327.0 1385.0 1408.0 1353.0 1243.0 1180.0 1070.0 1041.0 1008.0 989.0 968.0 949.0 904.0 882.0 858.0 848.0 845.0 855.0 884.0 878.0 885.0 906.0 856.0 819.0 757.0 703.0 699.0 718.0 747.0 752.0 774.0 760.0 770.0 800.0 861.0 876.0 823.0 785.0 721.0 677.0 724.0 740.0 768.0 824.0 838.0 793.0 761.0 732.0 719.0 660.0 631.0 623.0 622.0 574.0 574.0 590.0 612.0 618.0 620.0 644.0 648.0 685.0 769.0 803.0 831.0 846.0 845.0 824.0 776.0 762.0 717.0 691.0 653.0 632.0 592.0 571.0 526.0 542.0 555.0 557.0 575.0 597.0 598.0 596.0 600.0 626.0 605.0 595.0 603.0 594.0 597.0 567.0 551.0 512.0 493.0 500.0 510.0 536.0 518.0 453.0 435.0 436.0 437.0 436.0 439.0 461.0 473.0 497.0 510.0 534.0 539.0 550.0 561.0 566.0 570.0 566.0 576.0 606.0 620.0 638.0 684.0 696.0 690.0 715.0 776.0 799.0 838.0 855.0 899.0 920.0 960.0 982.0 1027.0 1054.0 1108.0 1131.0 1185.0 1217.0 1253.0 1276.0 1310.0 1311.0 1314.0 1307.0 1317.0 1310.0 1336.0 1338.0 1320.0 1283.0 1274.0 1289.0 1311.0 1347.0 1353.0 1350.0 1349.0 1346.0 1346.0 1366.0 1366.0 1345.0 1339.0 1334.0 1332.0 1320.0 1313.0 1305.0 1299.0 1297.0 1300.0 1309.0 1303.0 1261.0 1278.0 1285.0 1257.0 1270.0 1275.0 1264.0 1260.0 1283.0 1295.0 1331.0 1372.0 1394.0 1419.0 1420.0 1415.0 1413.0 1388.0 1358.0 1289.0 1292.0 1336.0 1365.0 1412.0 1432.0 1453.0 1451.0 1458.0 1464.0 1455.0 1441.0 1393.0 1366.0 1313.0 1292.0 1221.0 1199.0 1151.0 1122.0 1084.0 1109.0 1162.0 1185.0 1246.0 1270.0 1300.0 1298.0 1301.0 1287.0 1276.0 1239.0 1222.0 1207.0 1201.0 1218.0 1250.0 1297.0 1305.0 1303.0 1307.0 1335.0 1342.0 1364.0 1358.0 1344.0 1357.0 1369.0 1380.0 1402.0 1406.0 1403.0 1391.0 1369.0 1384.0 1419.0 1431.0 1463.0 1471.0 1457.0 1442.0 1405.0 1364.0 1379.0 1383.0 1387.0 1373.0 1351.0 1317.0 1299.0 1258.0 1239.0 1215.0 1198.0 1165.0 1152.0 1126.0 1120.0 1112.0 1102.0 1080.0 1071.0 1038.0 1024.0 985.0 965.0 918.0 902.0 879.0 855.0 799.0 779.0 818.0 838.0 815.0 812.0 839.0 850.0 847.0 830.0 810.0 798.0 797.0 777.0 760.0 738.0 726.0 682.0 654.0 631.0 609.0 558.0 537.0 522.0 515.0 479.0 461.0 437.0 423.0 384.0 359.0 322.0 317.0 319.0 298.0 272.0 258.0 250.0 249.0 241.0 235.0 244.0 251.0 253.0 264.0 270.0 273.0 271.0 261.0 260.0 259.0 257.0 257.0 257.0 256.0 256.0 256.0 257.0 257.0 258.0 260.0 258.0 261.0 261.0 261.0 261.0 263.0 269.0 276.0 279.0 315.0 322.0 321.0 322.0 322.0 320.0 318.0 314.0 317.0 316.0 315.0 313.0 311.0 299.0 302.0 298.0 299.0 299.0 305.0 304.0 303.0 302.0 303.0 303.0 306.0 302.0 301.0 306.0 307.0 309.0 310.0 305.0 306.0 313.0 312.0 311.0 308.0 312.0 316.0 315.0 314.0 316.0 314.0 315.0 316.0 318.0 320.0 319.0 314.0 313.0 315.0 317.0 322.0 334.0 339.0 332.0 341
746.0 715.0 716.0 746.0 765.0 811.0 847.0 934.0 969.0 955.0 948.0 931.0 915.0 900.0 903.0 919.0 982.0 1015.0 1088.0 1133.0 1221.0 1271.0 1352.0 1384.0 1456.0 1455.0 1424.0 1422.0 1405.0 1402.0 1443.0 1465.0 1469.0 1452.0 1386.0 1351.0 1314.0 1309.0 1301.0 1331.0 1391.0 1435.0 1360.0 1298.0 1184.0 1130.0 1067.0 1027.0 1030.0 1015.0 1000.0 969.0 948.0 885.0 857.0 813.0 816.0 837.0 841.0 797.0 806.0 821.0 802.0 738.0 705.0 734.0 766.0 789.0 789.0 815.0 797.0 793.0 810.0 877.0 884.0 809.0 771.0 706.0 733.0 769.0 776.0 809.0 840.0 886.0 831.0 806.0 759.0 735.0 668.0 634.0 652.0 639.0 571.0 571.0 562.0 566.0 573.0 594.0 587.0 649.0 680.0 749.0 761.0 786.0 814.0 845.0 833.0 776.0 752.0 710.0 692.0 654.0 635.0 592.0 568.0 523.0 522.0 545.0 545.0 565.0 574.0 572.0 579.0 597.0 618.0 600.0 568.0 570.0 565.0 573.0 557.0 535.0 498.0 496.0 529.0 546.0 520.0 494.0 442.0 434.0 446.0 443.0 436.0 440.0 475.0 485.0 505.0 513.0 519.0 517.0 530.0 538.0 553.0 567.0 593.0 630.0 647.0 651.0 662.0 693.0 716.0 719.0 735.0 787.0 808.0 849.0 867.0 900.0 924.0 970.0 991.0 1038.0 1063.0 1113.0 1144.0 1197.0 1220.0 1258.0 1278.0 1318.0 1317.0 1311.0 1309.0 1307.0 1302.0 1307.0 1307.0 1297.0 1290.0 1272.0 1282.0 1318.0 1342.0 1349.0 1340.0 1332.0 1339.0 1339.0 1358.0 1366.0 1356.0 1341.0 1330.0 1325.0 1316.0 1313.0 1305.0 1302.0 1304.0 1310.0 1301.0 1279.0 1271.0 1302.0 1270.0 1255.0 1268.0 1277.0 1271.0 1267.0 1279.0 1294.0 1330.0 1348.0 1381.0 1397.0 1425.0 1445.0 1450.0 1403.0 1373.0 1310.0 1306.0 1351.0 1359.0 1415.0 1440.0 1472.0 1481.0 1491.0 1488.0 1465.0 1446.0 1397.0 1370.0 1344.0 1319.0 1243.0 1214.0 1164.0 1136.0 1109.0 1113.0 1176.0 1204.0 1244.0 1263.0 1293.0 1300.0 1318.0 1322.0 1309.0 1284.0 1263.0 1237.0 1230.0 1220.0 1225.0 1269.0 1297.0 1312.0 1314.0 1336.0 1338.0 1346.0 1330.0 1345.0 1379.0 1389.0 1384.0 1403.0 1417.0 1438.0 1431.0 1401.0 1399.0 1418.0 1428.0 1464.0 1474.0 1458.0 1441.0 1407.0 1421.0 1415.0 1410.0 1399.0 1376.0 1356.0 1327.0 1307.0 1267.0 1249.0 1231.0 1212.0 1171.0 1152.0 1112.0 1100.0 1114.0 1111.0 1082.0 1067.0 1023.0 1002.0 960.0 931.0 887.0 877.0 849.0 833.0 794.0 775.0 787.0 804.0 780.0 765.0 819.0 829.0 842.0 799.0 784.0 788.0 775.0 775.0 762.0 727.0 719.0 687.0 676.0 660.0 640.0 567.0 544.0 520.0 508.0 484.0 475.0 452.0 431.0 388.0 363.0 312.0 302.0 281.0 279.0 264.0 258.0 250.0 249.0 242.0 237.0 240.0 245.0 250.0 264.0 269.0 267.0 262.0 258.0 259.0 258.0 258.0 255.0 256.0 258.0 258.0 255.0 254.0 255.0 257.0 256.0 256.0 257.0 258.0 259.0 258.0 259.0 263.0 275.0 275.0 307.0 322.0 322.0 321.0 320.0 320.0 318.0 313.0 312.0 315.0 314.0 316.0 310.0 296.0 298.0 296.0 296.0 295.0 301.0 302.0 301.0 298.0 299.0 301.0 303.0 300.0 301.0 306.0 305.0 306.0 308.0 304.0 306.0 310.0 310.0 309.0 307.0 312.0 312.0 311.0 310.0 312.0 316.0 315.0 315.0 322.0 321.0 318.0 312.0 313.0 314.0 315.0 325.0 342.0 356.0 345.0 338
762.0 719.0 722.0 742.0 757.0 806.0 846.0 914.0 921.0 888.0 895.0 886.0 883.0 869.0 885.0 924.0 984.0 1019.0 1102.0 1145.0 1226.0 1293.0 1371.0 1406.0 1452.0 1426.0 1374.0 1369.0 1355.0 1373.0 1421.0 1439.0 1422.0 1418.0 1347.0 1314.0 1278.0 1271.0 1316.0 1360.0 1424.0 1443.0 1362.0 1298.0 1222.0 1182.0 1117.0 1076.0 1080.0 1076.0 1075.0 1057.0 997.0 936.0 910.0 829.0 802.0 794.0 784.0 757.0 757.0 765.0 758.0 713.0 707.0 751.0 797.0 843.0 836.0 851.0 841.0 846.0 857.0 885.0 861.0 794.0 746.0 741.0 754.0 814.0 837.0 862.0 881.0 917.0 895.0 815.0 784.0 725.0 693.0 645.0 666.0 636.0 600.0 600.0 592.0 571.0 575.0 548.0 563.0 623.0 658.0 700.0 711.0 778.0 805.0 827.0 822.0 787.0 763.0 713.0 695.0 653.0 636.0 589.0 566.0 528.0 516.0 540.0 542.0 549.0 548.0 556.0 570.0 604.0 625.0 600.0 565.0 553.0 537.0 537.0 536.0 521.0 502.0 519.0 577.0 570.0 520.0 489.0 437.0 436.0 448.0 443.0 437.0 442.0 469.0 476.0 487.0 489.0 491.0 496.0 506.0 515.0 545.0 560.0 610.0 634.0 675.0 686.0 697.0 705.0 725.0 741.0 762.0 796.0 816.0 864.0 885.0 914.0 936.0 982.0 1002.0 1045.0 1074.0 1131.0 1149.0 1193.0 1218.0 1255.0 1277.0 1329.0 1329.0 1323.0 1318.0 1298.0 1298.0 1293.0 1295.0 1291.0 1282.0 1275.0 1290.0 1328.0 1315.0 1338.0 1341.0 1320.0 1316.0 1332.0 1354.0 1364.0 1359.0 1347.0 1326.0 1320.0 1311.0 1309.0 1309.0 1310.0 1315.0 1318.0 1284.0 1274.0 1315.0 1303.0 1265.0 1271.0 1271.0 1281.0 1276.0 1274.0 1278.0 1288.0 1311.0 1326.0 1361.0 1387.0 1433.0 1450.0 1474.0 1460.0 1393.0 1365.0 1367.0 1389.0 1383.0 1404.0 1426.0 1469.0 1487.0 1503.0 1498.0 1472.0 1453.0 1420.0 1404.0 1362.0 1324.0 1249.0 1223.0 1182.0 1161.0 1132.0 1139.0 1165.0 1190.0 1249.0 1266.0 1292.0 1300.0 1322.0 1335.0 1335.0 1330.0 1300.0 1286.0 1259.0 1241.0 1237.0 1239.0 1257.0 1287.0 1260.0 1294.0 1318.0 1320.0 1306.0 1349.0 1381.0 1404.0 1397.0 1400.0 1411.0 1436.0 1441.0 1439.0 1432.0 1446.0 1445.0 1461.0 1471.0 1458.0 1455.0 1448.0 1444.0 1432.0 1422.0 1402.0 1392.0 1355.0 1337.0 1303.0 1264.0 1249.0 1225.0 1212.0 1167.0 1153.0 1110.0 1097.0 1100.0 1107.0 1070.0 1055.0 1008.0 974.0 920.0 894.0 856.0 847.0 820.0 809.0 784.0 766.0 750.0 767.0 736.0 745.0 795.0 804.0 824.0 800.0 765.0 775.0 762.0 768.0 757.0 717.0 699.0 691.0 685.0 667.0 643.0 583.0 562.0 535.0 514.0 490.0 476.0 448.0 424.0 381.0 355.0 316.0 311.0 281.0 280.0 263.0 256.0 251.0 249.0 245.0 238.0 236.0 244.0 249.0 257.0 268.0 267.0 260.0 257.0 259.0 255.0 256.0 257.0 258.0 258.0 257.0 254.0 254.0 255.0 255.0 257.0 255.0 256.0 256.0 257.0 257.0 257.0 260.0 273.0 275.0 301.0 321.0 320.0 321.0 319.0 318.0 318.0 317.0 309.0 306.0 308.0 315.0 312.0 293.0 292.0 293.0 293.0 294.0 295.0 300.0 299.0 298.0 298.0 298.0 300.0 303.0 303.0 305.0 304.0 303.0 305.0 302.0 306.0 309.0 308.0 307.0 306.0 311.0 311.0 309.0 309.0 309.0 311.0 318.0 315.0 314.0 310.0 310.0 312.0 312.0 313.0 314.0 327.0 342.0 358.0 358.0 346
763.0 724.0 725.0 741.0 749.0 799.0 830.0 852.0 854.0 839.0 837.0 837.0 845.0 877.0 907.0 982.0 1013.0 1063.0 1087.0 1192.0 1232.0 1330.0 1380.0 1387.0 1410.0 1391.0 1330.0 1315.0 1318.0 1346.0 1395.0 1402.0 1382.0 1381.0 1309.0 1280.0 1253.0 1273.0 1341.0 1371.0 1427.0 1451.0 1398.0 1349.0 1276.0 1250.0 1167.0 1119.0 1126.0 1126.0 1106.0 1101.0 1050.0 1020.0 938.0 893.0 891.0 864.0 824.0 782.0 766.0 742.0 730.0 721.0 749.0 777.0 808.0 880.0 885.0 891.0 892.0 898.0 895.0 864.0 834.0 765.0 771.0 785.0 792.0 849.0 885.0 920.0 931.0 941.0 908.0 819.0 780.0 716.0 690.0 681.0 688.0 633.0 630.0 630.0 645.0 654.0 605.0 555.0 546.0 593.0 621.0 656.0 680.0 762.0 785.0 787.0 778.0 775.0 767.0 712.0 683.0 641.0 624.0 595.0 570.0 523.0 513.0 535.0 535.0 533.0 543.0 558.0 575.0 609.0 631.0 614.0 606.0 577.0 569.0 536.0 520.0 512.0 528.0 575.0 574.0 547.0 500.0 468.0 438.0 440.0 441.0 438.0 439.0 449.0 461.0 465.0 477.0 482.0 497.0 510.0 526.0 525.0 557.0 574.0 622.0 645.0 690.0 709.0 726.0 726.0 749.0 769.0 792.0 802.0 832.0 852.0 897.0 930.0 953.0 992.0 1010.0 1068.0 1091.0 1131.0 1144.0 1179.0 1201.0 1264.0 1300.0 1354.0 1353.0 1327.0 1318.0 1304.0 1316.0 1316.0 1322.0 1313.0 1307.0 1273.0 1280.0 1282.0 1290.0 1319.0 1324.0 1300.0 1301.0 1323.0 1336.0 1355.0 1353.0 1356.0 1326.0 1318.0 1315.0 1315.0 1324.0 1327.0 1324.0 1322.0 1279.0 1282.0 1320.0 1302.0 1271.0 1284.0 1291.0 1289.0 1287.0 1285.0 1287.0 1290.0 1312.0 1322.0 1365.0 1391.0 1439.0 1461.0 1488.0 1473.0 1405.0 1380.0 1399.0 1412.0 1418.0 1404.0 1420.0 1457.0 1474.0 1496.0 1496.0 1474.0 1461.0 1445.0 1428.0 1361.0 1314.0 1253.0 1228.0 1186.0 1166.0 1160.0 1183.0 1190.0 1179.0 1231.0 1269.0 1316.0 1324.0 1329.0 1340.0 1361.0 1363.0 1333.0 1322.0 1300.0 1286.0 1268.0 1268.0 1249.0 1278.0 1259.0 1265.0 1286.0 1294.0 1294.0 1351.0 1378.0 1411.0 1414.0 1406.0 1405.0 1422.0 1432.0 1459.0 1463.0 1471.0 1470.0 1459.0 1464.0 1467.0 1460.0 1449.0 1445.0 1428.0 1413.0 1390.0 1382.0 1352.0 1329.0 1288.0 1271.0 1232.0 1219.0 1194.0 1177.0 1136.0 1115.0 1108.0 1077.0 1059.0 1039.0 1027.0 996.0 971.0 904.0 888.0 853.0 830.0 784.0 777.0 775.0 754.0 708.0 717.0 707.0 723.0 758.0 784.0 780.0 717.0 760.0 772.0 750.0 754.0 737.0 727.0 684.0 678.0 675.0 660.0 643.0 594.0 578.0 549.0 521.0 481.0 468.0 438.0 419.0 359.0 332.0 306.0 294.0 278.0 279.0 261.0 254.0 250.0 248.0 245.0 235.0 233.0 244.0 248.0 253.0 265.0 261.0 260.0 259.0 258.0 258.0 257.0 258.0 259.0 260.0 258.0 256.0 255.0 255.0 256.0 255.0 254.0 256.0 258.0 257.0 254.0 256.0 257.0 271.0 274.0 293.0 311.0 319.0 320.0 318.0 317.0 317.0 318.0 314.0 308.0 300.0 303.0 306.0 304.0 291.0 293.0 291.0 291.0 292.0 297.0 296.0 295.0 294.0 293.0 296.0 302.0 304.0 303.0 302.0 301.0 301.0 303.0 306.0 306.0 304.0 304.0 302.0 309.0 311.0 306.0 307.0 308.0 310.0 309.0 313.0 312.0 310.0 309.0 311.0 311.0 311.0 315.0 339.0 348.0 355.0 358.0 362
782.0 728.0 728.0 743.0 750.0 771.0 781.0 795.0 798.0 805.0 810.0 850.0 865.0 918.0 946.0 1023.0 1069.0 1133.0 1217.0 1257.0 1290.0 1367.0 1364.0 1346.0 1351.0 1368.0 1342.0 1268.0 1292.0 1311.0 1364.0 1355.0 1344.0 1337.0 1278.0 1250.0 1257.0 1290.0 1370.0 1403.0 1451.0 1468.0 1449.0 1423.0 1341.0 1295.0 1207.0 1183.0 1174.0 1138.0 1071.0 1067.0 1049.0 1030.0 971.0 956.0 928.0 915.0 879.0 851.0 811.0 794.0 750.0 726.0 786.0 811.0 811.0 882.0 913.0 940.0 953.0 925.0 890.0 826.0 808.0 796.0 815.0 842.0 858.0 886.0 912.0 966.0 983.0 945.0 902.0 815.0 776.0 720.0 706.0 722.0 712.0 664.0 718.0 718.0 709.0 689.0 643.0 616.0 560.0 544.0 584.0 625.0 656.0 725.0 746.0 749.0 738.0 740.0 743.0 701.0 673.0 633.0 613.0 565.0 550.0 515.0 509.0 525.0 529.0 540.0 560.0 574.0 580.0 611.0 633.0 638.0 625.0 604.0 589.0 548.0 525.0 567.0 570.0 590.0 573.0 533.0 483.0 455.0 440.0 444.0 442.0 439.0 444.0 463.0 481.0 490.0 500.0 510.0 521.0 531.0 555.0 561.0 563.0 579.0 623.0 644.0 681.0 707.0 753.0 751.0 769.0 786.0 819.0 840.0 857.0 870.0 906.0 923.0 963.0 984.0 1039.0 1061.0 1100.0 1123.0 1133.0 1190.0 1226.0 1295.0 1321.0 1366.0 1370.0 1335.0 1326.0 1309.0 1321.0 1346.0 1353.0 1339.0 1325.0 1292.0 1288.0 1278.0 1281.0 1297.0 1300.0 1289.0 1293.0 1330.0 1342.0 1343.0 1341.0 1354.0 1348.0 1325.0 1324.0 1327.0 1329.0 1324.0 1317.0 1301.0 1286.0 1307.0 1324.0 1305.0 1275.0 1286.0 1306.0 1296.0 1290.0 1297.0 1312.0 1311.0 1320.0 1339.0 1379.0 1400.0 1440.0 1461.0 1483.0 1464.0 1406.0 1400.0 1438.0 1448.0 1449.0 1433.0 1452.0 1456.0 1467.0 1483.0 1495.0 1483.0 1452.0 1437.0 1414.0 1343.0 1297.0 1251.0 1229.0 1175.0 1168.0 1194.0 1223.0 1238.0 1216.0 1216.0 1249.0 1309.0 1322.0 1329.0 1341.0 1372.0 1383.0 1369.0 1358.0 1334.0 1320.0 1302.0 1335.0 1317.0 1323.0 1293.0 1275.0 1265.0 1270.0 1302.0 1349.0 1368.0 1403.0 1420.0 1428.0 1421.0 1425.0 1428.0 1452.0 1467.0 1486.0 1486.0 1473.0 1469.0 1464.0 1455.0 1441.0 1436.0 1420.0 1404.0 1377.0 1365.0 1341.0 1324.0 1277.0 1261.0 1218.0 1200.0 1170.0 1158.0 1144.0 1140.0 1123.0 1112.0 1075.0 1035.0 1025.0 1011.0 979.0 926.0 911.0 865.0 831.0 769.0 750.0 742.0 724.0 683.0 676.0 667.0 684.0 725.0 747.0 686.0 704.0 754.0 762.0 739.0 738.0 726.0 707.0 666.0 659.0 646.0 647.0 626.0 611.0 588.0 552.0 521.0 483.0 469.0 434.0 399.0 359.0 332.0 289.0 283.0 277.0 277.0 258.0 255.0 250.0 250.0 242.0 233.0 234.0 242.0 244.0 248.0 258.0 259.0 259.0 260.0 258.0 259.0 256.0 257.0 259.0 259.0 255.0 256.0 255.0 254.0 255.0 256.0 254.0 255.0 260.0 257.0 256.0 255.0 255.0 269.0 274.0 281.0 298.0 314.0 314.0 318.0 317.0 317.0 318.0 315.0 313.0 311.0 304.0 297.0 295.0 289.0 290.0 289.0 290.0 291.0 297.0 292.0 292.0 291.0 293.0 298.0 301.0 303.0 301.0 300.0 298.0 297.0 303.0 303.0 304.0 302.0 303.0 302.0 309.0 307.0 303.0 306.0 307.0 307.0 304.0 306.0 308.0 307.0 308.0 310.0 310.0 310.0 317.0 325.0 336.0 341.0 345.0 363
793.0 733.0 727.0 739.0 745.0 758.0 763.0 779.0 794.0 823.0 842.0 901.0 925.0 989.0 1034.0 1096.0 1181.0 1237.0 1268.0 1323.0 1350.0 1339.0 1320.0 1298.0 1304.0 1349.0 1347.0 1246.0 1235.0 1276.0 1308.0 1302.0 1299.0 1296.0 1238.0 1206.0 1274.0 1307.0 1385.0 1420.0 1464.0 1462.0 1452.0 1451.0 1377.0 1324.0 1255.0 1224.0 1152.0 1106.0 1027.0 1010.0 996.0 935.0 920.0 912.0 914.0 917.0 925.0 905.0 845.0 817.0 737.0 729.0 797.0 834.0 834.0 845.0 897.0 959.0 984.0 936.0 938.0 866.0 836.0 847.0 857.0 891.0 907.0 936.0 955.0 1006.0 1021.0 953.0 909.0 848.0 811.0 761.0 750.0 758.0 747.0 760.0 760.0 760.0 759.0 747.0 682.0 658.0 595.0 560.0 557.0 575.0 624.0 652.0 708.0 714.0 703.0 703.0 704.0 672.0 654.0 611.0 597.0 560.0 538.0 516.0 511.0 512.0 516.0 543.0 560.0 586.0 599.0 620.0 641.0 636.0 625.0 599.0 580.0 536.0 560.0 597.0 603.0 596.0 569.0 517.0 492.0 447.0 441.0 449.0 457.0 439.0 445.0 458.0 478.0 488.0 500.0 508.0 529.0 523.0 551.0 563.0 585.0 589.0 610.0 626.0 677.0 703.0 758.0 781.0 792.0 803.0 847.0 864.0 887.0 899.0 919.0 933.0 984.0 1006.0 1058.0 1081.0 1117.0 1127.0 1162.0 1193.0 1269.0 1329.0 1347.0 1368.0 1370.0 1343.0 1326.0 1310.0 1318.0 1353.0 1366.0 1342.0 1328.0 1320.0 1318.0 1287.0 1283.0 1285.0 1286.0 1295.0 1293.0 1333.0 1343.0 1331.0 1337.0 1350.0 1347.0 1333.0 1332.0 1338.0 1338.0 1331.0 1326.0 1293.0 1288.0 1326.0 1327.0 1312.0 1287.0 1279.0 1299.0 1289.0 1288.0 1297.0 1333.0 1341.0 1334.0 1343.0 1389.0 1409.0 1450.0 1478.0 1492.0 1472.0 1423.0 1418.0 1456.0 1476.0 1476.0 1470.0 1481.0 1490.0 1481.0 1492.0 1491.0 1479.0 1460.0 1456.0 1412.0 1373.0 1299.0 1259.0 1219.0 1205.0 1212.0 1238.0 1256.0 1261.0 1247.0 1224.0 1232.0 1279.0 1293.0 1336.0 1348.0 1363.0 1377.0 1397.0 1391.0 1367.0 1378.0 1365.0 1362.0 1353.0 1357.0 1320.0 1306.0 1281.0 1267.0 1288.0 1312.0 1346.0 1362.0 1407.0 1425.0 1441.0 1443.0 1439.0 1445.0 1458.0 1472.0 1475.0 1472.0 1470.0 1457.0 1447.0 1427.0 1423.0 1403.0 1391.0 1362.0 1347.0 1318.0 1306.0 1270.0 1251.0 1212.0 1207.0 1193.0 1184.0 1176.0 1168.0 1133.0 1114.0 1079.0 1061.0 1053.0 1043.0 984.0 942.0 925.0 875.0 849.0 791.0 763.0 724.0 711.0 690.0 680.0 648.0 644.0 655.0 645.0 681.0 712.0 742.0 746.0 733.0 726.0 719.0 704.0 679.0 671.0 650.0 639.0 609.0 593.0 592.0 585.0 528.0 504.0 466.0 441.0 396.0 352.0 319.0 282.0 279.0 277.0 276.0 259.0 257.0 247.0 248.0 244.0 232.0 236.0 242.0 244.0 245.0 255.0 262.0 257.0 257.0 257.0 257.0 258.0 256.0 259.0 260.0 255.0 256.0 256.0 256.0 254.0 255.0 254.0 255.0 257.0 255.0 255.0 254.0 254.0 261.0 269.0 273.0 279.0 291.0 294.0 313.0 316.0 317.0 317.0 315.0 314.0 312.0 312.0 300.0 298.0 290.0 288.0 288.0 288.0 292.0 296.0 292.0 289.0 290.0 291.0 300.0 302.0 301.0 300.0 297.0 297.0 296.0 301.0 302.0 305.0 302.0 298.0 303.0 305.0 304.0 302.0 302.0 302.0 302.0 304.0 305.0 305.0 305.0 307.0 308.0 310.0 312.0 320.0 323.0 331.0 338.0 339.0 344
804.0 765.0 731.0 741.0 746.0 758.0 765.0 803.0 826.0 871.0 896.0 964.0 996.0 1062.0 1094.0 1193.0 1226.0 1289.0 1310.0 1349.0 1357.0 1297.0 1273.0 1245.0 1259.0 1314.0 1319.0 1236.0 1199.0 1248.0 1273.0 1260.0 1269.0 1214.0 1191.0 1218.0 1263.0 1351.0 1385.0 1428.0 1437.0 1421.0 1409.0 1429.0 1407.0 1374.0 1299.0 1243.0 1133.0 1081.0 1004.0 973.0 911.0 897.0 875.0 866.0 862.0 864.0 888.0 893.0 830.0 787.0 730.0 746.0 814.0 852.0 867.0 867.0 897.0 922.0 979.0 994.0 944.0 909.0 869.0 898.0 914.0 948.0 956.0 972.0 995.0 1011.0 1003.0 969.0 937.0 888.0 851.0 803.0 796.0 843.0 831.0 820.0 816.0 816.0 805.0 783.0 710.0 679.0 613.0 584.0 538.0 548.0 592.0 617.0 674.0 676.0 674.0 674.0 660.0 613.0 599.0 591.0 572.0 549.0 545.0 519.0 510.0 504.0 514.0 542.0 557.0 581.0 597.0 635.0 650.0 623.0 603.0 581.0 559.0 562.0 583.0 618.0 616.0 574.0 556.0 516.0 487.0 443.0 445.0 448.0 454.0 440.0 446.0 471.0 469.0 475.0 483.0 505.0 517.0 521.0 537.0 549.0 591.0 613.0 642.0 657.0 696.0 721.0 767.0 796.0 832.0 842.0 874.0 888.0 910.0 926.0 953.0 985.0 1005.0 1022.0 1069.0 1099.0 1142.0 1162.0 1195.0 1215.0 1290.0 1321.0 1361.0 1373.0 1364.0 1352.0 1331.0 1325.0 1314.0 1347.0 1358.0 1357.0 1345.0 1339.0 1337.0 1318.0 1307.0 1293.0 1308.0 1315.0 1300.0 1322.0 1335.0 1326.0 1334.0 1345.0 1347.0 1342.0 1342.0 1342.0 1347.0 1333.0 1328.0 1297.0 1299.0 1339.0 1337.0 1316.0 1318.0 1293.0 1284.0 1285.0 1289.0 1292.0 1324.0 1341.0 1358.0 1359.0 1392.0 1433.0 1473.0 1491.0 1506.0 1488.0 1455.0 1455.0 1454.0 1474.0 1498.0 1502.0 1509.0 1516.0 1505.0 1512.0 1502.0 1500.0 1486.0 1477.0 1417.0 1387.0 1342.0 1312.0 1225.0 1229.0 1253.0 1282.0 1292.0 1281.0 1274.0 1256.0 1231.0 1267.0 1291.0 1340.0 1368.0 1375.0 1377.0 1405.0 1410.0 1415.0 1402.0 1389.0 1383.0 1374.0 1382.0 1349.0 1338.0 1304.0 1297.0 1277.0 1289.0 1331.0 1351.0 1395.0 1416.0 1434.0 1436.0 1448.0 1451.0 1455.0 1465.0 1468.0 1467.0 1465.0 1447.0 1436.0 1412.0 1403.0 1382.0 1369.0 1343.0 1328.0 1294.0 1283.0 1254.0 1242.0 1226.0 1230.0 1218.0 1207.0 1176.0 1162.0 1129.0 1112.0 1100.0 1096.0 1072.0 1046.0 999.0 978.0 938.0 920.0 883.0 858.0 804.0 765.0 754.0 739.0 724.0 674.0 637.0 610.0 611.0 670.0 700.0 720.0 731.0 719.0 717.0 709.0 702.0 689.0 682.0 667.0 653.0 608.0 587.0 590.0 584.0 529.0 492.0 454.0 432.0 396.0 368.0 298.0 281.0 277.0 275.0 274.0 258.0 257.0 251.0 250.0 247.0 240.0 232.0 236.0 241.0 241.0 230.0 236.0 256.0 257.0 258.0 257.0 257.0 257.0 257.0 260.0 255.0 257.0 255.0 255.0 255.0 255.0 254.0 254.0 255.0 255.0 255.0 253.0 252.0 255.0 260.0 272.0 273.0 278.0 277.0 290.0 300.0 315.0 315.0 314.0 313.0 313.0 314.0 310.0 310.0 300.0 289.0 285.0 283.0 291.0 294.0 291.0 286.0 289.0 289.0 300.0 302.0 301.0 300.0 296.0 294.0 294.0 301.0 303.0 302.0 303.0 298.0 303.0 302.0 303.0 299.0 300.0 301.0 300.0 304.0 304.0 303.0 304.0 307.0 306.0 311.0 314.0 321.0 327.0 351.0 356.0 360.0 358
823.0 788.0 735.0 729.0 745.0 752.0 781.0 813.0 871.0 927.0 949.0 997.0 1026.0 1073.0 1105.0 1186.0 1232.0 1265.0 1262.0 1308.0 1331.0 1259.0 1228.0 1208.0 1220.0 1267.0 1277.0 1213.0 1171.0 1216.0 1233.0 1223.0 1229.0 1178.0 1184.0 1244.0 1282.0 1365.0 1403.0 1415.0 1399.0 1375.0 1359.0 1394.0 1384.0 1371.0 1321.0 1267.0 1152.0 1097.0 1007.0 1015.0 955.0 918.0 866.0 847.0 812.0 811.0 832.0 849.0 785.0 752.0 750.0 776.0 828.0 860.0 895.0 901.0 905.0 952.0 981.0 1005.0 961.0 946.0 930.0 937.0 957.0 970.0 993.0 997.0 1004.0 969.0 953.0 941.0 942.0 910.0 880.0 857.0 904.0 886.0 878.0 869.0 857.0 857.0 810.0 782.0 715.0 683.0 620.0 594.0 544.0 532.0 576.0 604.0 635.0 636.0 645.0 645.0 605.0 590.0 570.0 571.0 571.0 566.0 550.0 535.0 515.0 503.0 511.0 546.0 566.0 594.0 601.0 636.0 654.0 629.0 611.0 582.0 588.0 579.0 597.0 626.0 602.0 548.0 527.0 494.0 471.0 441.0 442.0 444.0 448.0 442.0 451.0 484.0 492.0 500.0 508.0 511.0 514.0 530.0 539.0 554.0 577.0 594.0 636.0 662.0 711.0 736.0 787.0 814.0 868.0 882.0 906.0 918.0 945.0 974.0 993.0 1002.0 1023.0 1041.0 1090.0 1122.0 1170.0 1194.0 1225.0 1240.0 1301.0 1331.0 1363.0 1374.0 1364.0 1365.0 1354.0 1345.0 1320.0 1328.0 1353.0 1341.0 1336.0 1344.0 1346.0 1343.0 1327.0 1296.0 1315.0 1333.0 1311.0 1310.0 1318.0 1329.0 1340.0 1348.0 1350.0 1349.0 1355.0 1357.0 1351.0 1329.0 1321.0 1295.0 1308.0 1340.0 1337.0 1331.0 1339.0 1322.0 1302.0 1301.0 1298.0 1300.0 1301.0 1320.0 1356.0 1374.0 1413.0 1437.0 1480.0 1500.0 1520.0 1500.0 1488.0 1490.0 1470.0 1478.0 1504.0 1521.0 1538.0 1541.0 1525.0 1532.0 1525.0 1523.0 1498.0 1461.0 1398.0 1371.0 1329.0 1294.0 1242.0 1260.0 1291.0 1307.0 1324.0 1319.0 1292.0 1279.0 1246.0 1288.0 1317.0 1371.0 1395.0 1412.0 1402.0 1419.0 1430.0 1434.0 1422.0 1415.0 1402.0 1390.0 1401.0 1382.0 1362.0 1336.0 1332.0 1293.0 1283.0 1330.0 1349.0 1385.0 1401.0 1411.0 1418.0 1438.0 1449.0 1460.0 1462.0 1465.0 1464.0 1459.0 1450.0 1426.0 1406.0 1389.0 1364.0 1357.0 1330.0 1322.0 1286.0 1273.0 1253.0 1254.0 1253.0 1248.0 1217.0 1200.0 1170.0 1154.0 1146.0 1142.0 1132.0 1125.0 1074.0 1049.0 1016.0 998.0 965.0 944.0 905.0 884.0 839.0 824.0 797.0 784.0 760.0 703.0 671.0 611.0 588.0 641.0 675.0 710.0 722.0 705.0 704.0 697.0 692.0 684.0 673.0 654.0 642.0 602.0 580.0 563.0 537.0 508.0 480.0 438.0 421.0 381.0 353.0 286.0 277.0 276.0 272.0 264.0 259.0 255.0 255.0 253.0 248.0 249.0 231.0 228.0 228.0 237.0 235.0 230.0 244.0 255.0 258.0 259.0 258.0 258.0 258.0 257.0 255.0 255.0 254.0 254.0 254.0 255.0 255.0 255.0 253.0 254.0 253.0 253.0 252.0 252.0 256.0 260.0 271.0 273.0 272.0 273.0 278.0 300.0 309.0 314.0 311.0 314.0 314.0 311.0 312.0 307.0 303.0 284.0 283.0 285.0 291.0 290.0 287.0 289.0 288.0 301.0 308.0 305.0 298.0 291.0 290.0 293.0 296.0 299.0 301.0 296.0 300.0 295.0 296.0 295.0 297.0 298.0 300.0 300.0 301.0 303.0 303.0 304.0 305.0 307.0 314.0 314.0 323.0 330.0 345.0 350.0 365.0 370
833.0 801.0 747.0 730.0 746.0 757.0 787.0 807.0 849.0 883.0 932.0 949.0 987.0 1062.0 1099.0 1187.0 1230.0 1218.0 1206.0 1259.0 1284.0 1226.0 1189.0 1172.0 1184.0 1220.0 1225.0 1184.0 1143.0 1177.0 1168.0 1205.0 1199.0 1157.0 1189.0 1261.0 1293.0 1364.0 1402.0 1389.0 1357.0 1330.0 1318.0 1358.0 1354.0 1317.0 1318.0 1285.0 1231.0 1150.0 1108.0 1063.0 974.0 951.0 902.0 880.0 839.0 817.0 790.0 798.0 752.0 745.0 768.0 794.0 852.0 885.0 938.0 950.0 1009.0 1005.0 1028.0 1035.0 1005.0 998.0 976.0 979.0 961.0 946.0 957.0 980.0 965.0 940.0 897.0 889.0 902.0 918.0 927.0 929.0 918.0 910.0 906.0 889.0 872.0 872.0 823.0 793.0 720.0 692.0 644.0 617.0 565.0 539.0 553.0 575.0 601.0 609.0 584.0 586.0 585.0 574.0 548.0 546.0 555.0 551.0 537.0 529.0 516.0 502.0 506.0 523.0 561.0 569.0 590.0 634.0 655.0 642.0 623.0 611.0 624.0 603.0 617.0 633.0 608.0 568.0 549.0 487.0 460.0 442.0 450.0 453.0 445.0 444.0 460.0 471.0 496.0 497.0 501.0 516.0 524.0 536.0 543.0 559.0 571.0 597.0 609.0 652.0 683.0 735.0 788.0 816.0 876.0 898.0 932.0 955.0 1003.0 1004.0 1010.0 1018.0 1043.0 1062.0 1106.0 1135.0 1186.0 1212.0 1252.0 1265.0 1316.0 1353.0 1376.0 1379.0 1376.0 1388.0 1372.0 1364.0 1348.0 1340.0 1351.0 1345.0 1324.0 1327.0 1333.0 1331.0 1310.0 1310.0 1325.0 1341.0 1322.0 1298.0 1307.0 1333.0 1340.0 1347.0 1350.0 1345.0 1347.0 1349.0 1350.0 1340.0 1325.0 1301.0 1322.0 1328.0 1332.0 1342.0 1347.0 1331.0 1314.0 1324.0 1313.0 1310.0 1309.0 1312.0 1329.0 1352.0 1374.0 1423.0 1448.0 1498.0 1527.0 1513.0 1512.0 1511.0 1492.0 1508.0 1517.0 1528.0 1555.0 1558.0 1543.0 1545.0 1542.0 1527.0 1452.0 1417.0 1366.0 1337.0 1296.0 1270.0 1271.0 1286.0 1324.0 1346.0 1352.0 1347.0 1318.0 1301.0 1277.0 1262.0 1319.0 1353.0 1412.0 1439.0 1455.0 1458.0 1453.0 1455.0 1446.0 1429.0 1412.0 1416.0 1419.0 1401.0 1377.0 1375.0 1365.0 1316.0 1292.0 1305.0 1324.0 1363.0 1374.0 1389.0 1397.0 1427.0 1434.0 1453.0 1461.0 1456.0 1454.0 1450.0 1441.0 1422.0 1414.0 1392.0 1378.0 1365.0 1351.0 1333.0 1309.0 1303.0 1286.0 1282.0 1262.0 1247.0 1213.0 1194.0 1173.0 1172.0 1169.0 1166.0 1151.0 1138.0 1093.0 1069.0 1042.0 1019.0 978.0 956.0 914.0 902.0 865.0 854.0 834.0 813.0 772.0 749.0 692.0 664.0 584.0 608.0 647.0 693.0 712.0 700.0 690.0 692.0 685.0 665.0 656.0 635.0 632.0 602.0 595.0 563.0 537.0 494.0 466.0 418.0 403.0 348.0 320.0 278.0 275.0 271.0 265.0 260.0 259.0 257.0 257.0 255.0 252.0 254.0 252.0 250.0 250.0 247.0 244.0 238.0 233.0 248.0 258.0 258.0 258.0 258.0 258.0 256.0 256.0 254.0 256.0 255.0 255.0 256.0 254.0 252.0 252.0 253.0 253.0 253.0 253.0 253.0 253.0 253.0 260.0 267.0 270.0 271.0 270.0 278.0 283.0 298.0 307.0 306.0 307.0 307.0 310.0 311.0 306.0 282.0 281.0 285.0 291.0 289.0 286.0 287.0 286.0 301.0 305.0 300.0 295.0 288.0 289.0 290.0 298.0 297.0 298.0 293.0 290.0 294.0 293.0 294.0 296.0 296.0 297.0 299.0 302.0 302.0 301.0 304.0 308.0 310.0 317.0 319.0 330.0 340.0 355.0 357.0 364.0 354
